0.00 0.00 0.00 0.00 0.00 0.00 0.00 0.00 0.00 0.00 0.00 0.00 0.00 0.00 0.00 0.00 0.00 0.00 0.00 0.00 0.00 0.00 0.00 0.00 0.00 0.00 0.00 0.00 0.00 0.00 0.00 0.00 0.00 0.00 0.00 0.00 0.00 0.00 0.00 0.07 0.15 0.12 0.10 0.10 0.10 0.07 0.03 0.09 0.15 0.15 0.15 0.14 0.12 0.06 0.00 0.00 0.00 0.00 0.00 0.00 0.00 0.00 0.00 0.00 0.00 0.00 0.00 0.00 0.00 0.00 0.00 0.00 0.00 0.00 0.00 0.00 0.00 0.00 0.00 0.00 0.00 0.00 0.00 0.00 0.00 0.00 0.00 0.00 0.00 0.00 0.00 0.00 0.00 0.00 0.00 0.00 0.00 0.00 0.00 0.00 0.00 0.00 0.00 0.00 0.00 0.00 0.00 0.00 0.00 0.00 0.00 0.00 0.00 0.00 0.00 0.00 0.00 0.00 0.00 0.00 0.00 0.00 0.00 0.00 0.00 0.00 0.00 0.00 0.00 0.00 0.00 0.00 0.00 0.00 0.00 0.00 0.00 0.00 0.00 0.00 0.00 0.00 0.00 0.00 0.00 0.00 0.00 0.00 0.00 0.00 0.00 0.00 0.00 0.00 0.00 0.00 0.00 0.00 0.00 0.00 0.00
0.00 0.00 0.00 0.00 0.00 0.00 0.00 0.00 0.00 0.00 0.00 0.00 0.00 0.00 0.00 0.00 0.00 0.00 0.00 0.00 0.00 0.00 0.00 0.00 0.00 0.00 0.00 0.00 0.00 0.00 0.00 0.00 0.00 0.00 0.00 0.00 0.00 0.00 0.00 0.07 0.15 0.12 0.10 0.10 0.10 0.07 0.04 0.11 0.18 0.18 0.18 0.16 0.14 0.07 0.00 0.00 0.00 0.00 0.00 0.00 0.00 0.00 0.00 0.03 0.05 0.05 0.05 0.05 0.05 0.08 0.10 0.12 0.15 0.12 0.10 0.10 0.10 0.10 0.10 0.08 0.05 0.06 0.07 0.07 0.07 0.07 0.07 0.07 0.07 0.07 0.07 0.04 0.00 0.00 0.00 0.00 0.00 0.00 0.00 0.00 0.00 0.00 0.00 0.00 0.00 0.00 0.00 0.00 0.00 0.00 0.00 0.00 0.00 0.00 0.00 0.00 0.00 0.00 0.00 0.00 0.00 0.00 0.00 0.00 0.00 0.00 0.00 0.00 0.00 0.00 0.00 0.00 0.00 0.00 0.00 0.00 0.00 0.00 0.00 0.00 0.00 0.00 0.00 0.00 0.00 0.00 0.00 0.00 0.00 0.00 0.00 0.00 0.00 0.00 0.00 0.00 0.00 0.00 0.00 0.00 0.00
0.00 0.00 0.00 0.00 0.00 0.00 0.00 0.00 0.00 0.00 0.00 0.00 0.00 0.00 0.00 0.00 0.00 0.00 0.00 0.00 0.00 0.00 0.00 0.00 0.00 0.00 0.00 0.00 0.00 0.00 0.00 0.00 0.00 0.00 0.00 0.00 0.00 0.00 0.00 0.07 0.15 0.12 0.10 0.10 0.10 0.08 0.06 0.14 0.22 0.22 0.22 0.18 0.15 0.07 0.00 0.00 0.00 0.00 0.00 0.00 0.00 0.00 0.00 0.05 0.10 0.10 0.10 0.10 0.10 0.15 0.20 0.25 0.30 0.25 0.20 0.20 0.20 0.20 0.20 0.15 0.10 0.12 0.15 0.15 0.15 0.15 0.15 0.15 0.15 0.15 0.15 0.07 0.00 0.00 0.00 0.00 0.00 0.00 0.00 0.00 0.00 0.00 0.00 0.00 0.00 0.00 0.00 0.00 0.00 0.00 0.00 0.00 0.00 0.00 0.00 0.00 0.00 0.00 0.00 0.00 0.00 0.00 0.00 0.00 0.00 0.00 0.00 0.00 0.00 0.00 0.00 0.00 0.00 0.00 0.00 0.00 0.00 0.00 0.00 0.00 0.00 0.00 0.00 0.00 0.00 0.00 0.00 0.00 0.00 0.00 0.00 0.00 0.00 0.00 0.00 0.00 0.00 0.00 0.00 0.00 0.00
0.00 0.00 0.00 0.00 0.00 0.00 0.00 0.00 0.00 0.00 0.00 0.00 0.00 0.00 0.00 0.00 0.00 0.00 0.00 0.00 0.00 0.00 0.00 0.00 0.00 0.00 0.00 0.00 0.00 0.00 0.00 0.00 0.00 0.00 0.00 0.00 0.00 0.04 0.07 0.11 0.15 0.12 0.10 0.11 0.11 0.12 0.13 0.22 0.31 0.31 0.31 0.24 0.16 0.08 0.00 0.00 0.00 0.00 0.00 0.00 0.00 0.05 0.10 0.15 0.20 0.20 0.20 0.20 0.20 0.26 0.33 0.38 0.42 0.39 0.35 0.38 0.40 0.42 0.45 0.40 0.35 0.38 0.40 0.42 0.45 0.43 0.40 0.38 0.35 0.34 0.33 0.20 0.07 0.04 0.00 0.00 0.00 0.00 0.00 0.00 0.00 0.00 0.00 0.00 0.00 0.00 0.00 0.00 0.00 0.00 0.00 0.00 0.00 0.00 0.00 0.00 0.00 0.00 0.00 0.00 0.00 0.00 0.00 0.00 0.00 0.00 0.00 0.00 0.00 0.00 0.00 0.00 0.00 0.00 0.00 0.00 0.00 0.00 0.00 0.00 0.00 0.00 0.00 0.00 0.00 0.00 0.00 0.00 0.00 0.00 0.00 0.00 0.00 0.00 0.00 0.00 0.00 0.00 0.00 0.00 0.00
0.00 0.00 0.00 0.00 0.00 0.00 0.00 0.00 0.00 0.00 0.00 0.00 0.00 0.00 0.00 0.00 0.00 0.00 0.00 0.00 0.00 0.00 0.00 0.00 0.00 0.00 0.00 0.00 0.00 0.00 0.00 0.00 0.00 0.00 0.00 0.00 0.00 0.07 0.15 0.15 0.15 0.12 0.10 0.11 0.12 0.16 0.21 0.30 0.40 0.40 0.40 0.29 0.18 0.09 0.00 0.00 0.00 0.00 0.00 0.00 0.00 0.10 0.20 0.25 0.30 0.30 0.30 0.30 0.30 0.38 0.45 0.50 0.55 0.53 0.50 0.55 0.60 0.65 0.70 0.65 0.60 0.62 0.65 0.70 0.75 0.70 0.65 0.60 0.55 0.53 0.50 0.32 0.15 0.07 0.00 0.00 0.00 0.00 0.00 0.00 0.00 0.00 0.00 0.00 0.00 0.00 0.00 0.00 0.00 0.00 0.00 0.00 0.00 0.00 0.00 0.00 0.00 0.00 0.00 0.00 0.00 0.00 0.00 0.00 0.00 0.00 0.00 0.00 0.00 0.00 0.00 0.00 0.00 0.00 0.00 0.00 0.00 0.00 0.00 0.00 0.00 0.00 0.00 0.00 0.00 0.00 0.00 0.00 0.00 0.00 0.00 0.00 0.00 0.00 0.00 0.00 0.00 0.00 0.00 0.00 0.00
0.00 0.00 0.00 0.00 0.00 0.00 0.00 0.00 0.00 0.00 0.00 0.00 0.00 0.00 0.00 0.00 0.00 0.00 0.00 0.00 0.00 0.00 0.00 0.00 0.00 0.00 0.00 0.00 0.00 0.00 0.00 0.00 0.00 0.00 0.00 0.00 0.00 0.07 0.15 0.14 0.12 0.11 0.10 0.12 0.14 0.21 0.29 0.35 0.41 0.40 0.39 0.26 0.12 0.06 0.00 0.00 0.00 0.00 0.00 0.00 0.00 0.11 0.23 0.29 0.35 0.35 0.35 0.35 0.35 0.42 0.50 0.56 0.62 0.60 0.57 0.65 0.72 0.80 0.88 0.84 0.80 0.80 0.80 0.89 0.98 0.90 0.82 0.75 0.68 0.64 0.60 0.43 0.25 0.12 0.00 0.01 0.02 0.03 0.04 0.04 0.04 0.03 0.02 0.01 0.00 0.00 0.00 0.00 0.00 0.00 0.00 0.00 0.00 0.00 0.00 0.00 0.00 0.00 0.00 0.00 0.00 0.00 0.00 0.00 0.00 0.00 0.00 0.00 0.00 0.00 0.00 0.00 0.00 0.00 0.00 0.00 0.00 0.00 0.00 0.00 0.00 0.00 0.00 0.00 0.00 0.00 0.00 0.00 0.00 0.00 0.00 0.00 0.00 0.00 0.00 0.00 0.00 0.00 0.00 0.00 0.00
0.00 0.00 0.00 0.00 0.00 0.00 0.00 0.00 0.00 0.00 0.00 0.00 0.00 0.00 0.00 0.00 0.00 0.00 0.00 0.00 0.00 0.00 0.00 0.00 0.00 0.00 0.00 0.00 0.00 0.00 0.00 0.00 0.00 0.00 0.00 0.00 0.00 0.07 0.15 0.12 0.10 0.11 0.11 0.14 0.16 0.26 0.36 0.39 0.42 0.40 0.37 0.22 0.07 0.04 0.00 0.00 0.00 0.00 0.00 0.00 0.00 0.12 0.25 0.33 0.40 0.40 0.40 0.40 0.40 0.48 0.55 0.62 0.70 0.67 0.65 0.75 0.85 0.95 1.05 1.02 1.00 0.98 0.95 1.07 1.20 1.10 1.00 0.90 0.80 0.75 0.70 0.52 0.35 0.17 0.00 0.02 0.04 0.06 0.08 0.08 0.08 0.06 0.04 0.02 0.00 0.00 0.00 0.00 0.00 0.00 0.00 0.00 0.00 0.00 0.00 0.00 0.00 0.00 0.00 0.00 0.00 0.00 0.00 0.00 0.00 0.00 0.00 0.00 0.00 0.00 0.00 0.00 0.00 0.00 0.00 0.00 0.00 0.00 0.00 0.00 0.00 0.00 0.00 0.00 0.00 0.00 0.00 0.00 0.00 0.00 0.00 0.00 0.00 0.00 0.00 0.00 0.00 0.00 0.00 0.00 0.00
0.00 0.00 0.00 0.00 0.00 0.00 0.00 0.00 0.00 0.00 0.00 0.00 0.00 0.00 0.00 0.00 0.00 0.00 0.00 0.00 0.00 0.00 0.00 0.00 0.00 0.00 0.00 0.00 0.00 0.00 0.00 0.00 0.00 0.00 0.00 0.00 0.00 0.07 0.15 0.12 0.10 0.09 0.07 0.11 0.15 0.28 0.40 0.43 0.45 0.42 0.39 0.22 0.06 0.03 0.00 0.00 0.00 0.00 0.00 0.00 0.00 0.14 0.28 0.35 0.42 0.44 0.45 0.45 0.45 0.53 0.60 0.66 0.72 0.71 0.70 0.80 0.90 1.01 1.12 1.16 1.20 1.19 1.17 1.39 1.60 1.52 1.45 1.34 1.23 1.14 1.06 0.88 0.71 0.43 0.15 0.14 0.12 0.16 0.20 0.24 0.28 0.26 0.24 0.20 0.16 0.12 0.08 0.05 0.02 0.01 0.00 0.00 0.00 0.00 0.00 0.00 0.00 0.00 0.00 0.00 0.00 0.00 0.00 0.00 0.00 0.00 0.00 0.00 0.00 0.00 0.00 0.00 0.00 0.00 0.00 0.00 0.00 0.00 0.00 0.00 0.00 0.00 0.00 0.00 0.00 0.00 0.00 0.00 0.00 0.00 0.00 0.00 0.00 0.00 0.00 0.00 0.00 0.00 0.00 0.00 0.00
0.00 0.00 0.00 0.00 0.00 0.00 0.00 0.00 0.00 0.00 0.00 0.00 0.00 0.00 0.00 0.00 0.00 0.00 0.00 0.00 0.00 0.00 0.00 0.00 0.00 0.00 0.00 0.00 0.00 0.00 0.00 0.00 0.00 0.00 0.00 0.00 0.00 0.07 0.15 0.12 0.10 0.07 0.03 0.08 0.13 0.29 0.45 0.46 0.48 0.44 0.41 0.22 0.04 0.02 0.00 0.00 0.00 0.00 0.00 0.00 0.00 0.15 0.30 0.38 0.45 0.47 0.50 0.50 0.50 0.57 0.65 0.70 0.75 0.75 0.75 0.85 0.95 1.07 1.20 1.30 1.40 1.40 1.40 1.70 2.00 1.95 1.90 1.77 1.65 1.53 1.42 1.24 1.06 0.69 0.31 0.26 0.20 0.26 0.32 0.40 0.48 0.46 0.44 0.38 0.32 0.24 0.16 0.10 0.04 0.02 0.00 0.00 0.00 0.00 0.00 0.00 0.00 0.00 0.00 0.00 0.00 0.00 0.00 0.00 0.00 0.00 0.00 0.00 0.00 0.00 0.00 0.00 0.00 0.00 0.00 0.00 0.00 0.00 0.00 0.00 0.00 0.00 0.00 0.00 0.00 0.00 0.00 0.00 0.00 0.00 0.00 0.00 0.00 0.00 0.00 0.00 0.00 0.00 0.00 0.00 0.00
0.00 0.00 0.00 0.00 0.00 0.00 0.00 0.00 0.00 0.00 0.00 0.00 0.00 0.00 0.00 0.00 0.00 0.00 0.00 0.00 0.00 0.00 0.00 0.00 0.00 0.00 0.00 0.00 0.00 0.00 0.00 0.00 0.00 0.00 0.00 0.04 0.07 0.10 0.12 0.12 0.12 0.09 0.06 0.13 0.21 0.34 0.47 0.49 0.51 0.42 0.33 0.17 0.02 0.01 0.00 0.00 0.00 0.00 0.00 0.00 0.00 0.16 0.32 0.40 0.47 0.51 0.55 0.55 0.55 0.65 0.75 0.80 0.85 0.85 0.85 0.94 1.02 1.15 1.27 1.35 1.43 1.41 1.40 1.71 2.02 2.04 2.05 1.95 1.85 1.80 1.75 1.61 1.47 1.08 0.70 0.59 0.48 0.53 0.57 0.63 0.70 0.64 0.59 0.54 0.49 0.40 0.32 0.23 0.16 0.12 0.10 0.06 0.03 0.01 0.00 0.00 0.00 0.00 0.00 0.00 0.00 0.00 0.00 0.00 0.00 0.00 0.00 0.00 0.00 0.00 0.00 0.00 0.00 0.00 0.00 0.00 0.00 0.00 0.00 0.00 0.00 0.00 0.00 0.00 0.00 0.00 0.00 0.00 0.00 0.00 0.00 0.00 0.00 0.00 0.00 0.00 0.00 0.00 0.00 0.00 0.00
0.00 0.00 0.00 0.00 0.00 0.00 0.00 0.00 0.00 0.00 0.00 0.00 0.00 0.00 0.00 0.00 0.00 0.00 0.00 0.00 0.00 0.00 0.00 0.00 0.00 0.00 0.00 0.00 0.00 0.00 0.00 0.00 0.00 0.00 0.00 0.07 0.15 0.12 0.10 0.12 0.15 0.12 0.08 0.18 0.29 0.40 0.50 0.52 0.54 0.39 0.24 0.12 0.00 0.00 0.00 0.00 0.00 0.00 0.00 0.00 0.00 0.17 0.35 0.42 0.50 0.55 0.60 0.60 0.60 0.72 0.85 0.90 0.95 0.95 0.95 1.02 1.10 1.23 1.35 1.40 1.45 1.42 1.40 1.72 2.05 2.12 2.20 2.12 2.05 2.07 2.09 1.98 1.88 1.48 1.08 0.92 0.76 0.79 0.82 0.86 0.91 0.82 0.74 0.71 0.67 0.57 0.47 0.37 0.27 0.23 0.19 0.12 0.05 0.03 0.00 0.00 0.00 0.00 0.00 0.00 0.00 0.00 0.00 0.00 0.00 0.00 0.00 0.00 0.00 0.00 0.00 0.00 0.00 0.00 0.00 0.00 0.00 0.00 0.00 0.00 0.00 0.00 0.00 0.00 0.00 0.00 0.00 0.00 0.00 0.00 0.00 0.00 0.00 0.00 0.00 0.00 0.00 0.00 0.00 0.00 0.00
0.00 0.00 0.00 0.00 0.00 0.00 0.00 0.00 0.00 0.00 0.00 0.00 0.00 0.00 0.00 0.00 0.00 0.00 0.00 0.00 0.00 0.00 0.00 0.00 0.00 0.00 0.00 0.00 0.00 0.00 0.00 0.00 0.00 0.00 0.00 0.09 0.17 0.17 0.17 0.23 0.28 0.30 0.33 0.43 0.54 0.62 0.70 0.62 0.55 0.38 0.21 0.10 0.00 0.00 0.00 0.00 0.00 0.00 0.00 0.00 0.00 0.19 0.38 0.42 0.47 0.53 0.57 0.57 0.57 0.68 0.77 0.85 0.92 1.00 1.07 1.15 1.23 1.36 1.50 1.60 1.70 1.74 1.77 2.06 2.35 2.48 2.60 2.54 2.47 2.51 2.56 2.40 2.24 1.84 1.44 1.27 1.10 1.12 1.14 1.14 1.14 1.04 0.94 0.90 0.85 0.76 0.67 0.56 0.45 0.41 0.36 0.26 0.16 0.10 0.04 0.04 0.04 0.04 0.04 0.03 0.02 0.01 0.00 0.00 0.00 0.00 0.00 0.00 0.00 0.00 0.00 0.00 0.00 0.00 0.00 0.00 0.00 0.00 0.00 0.00 0.00 0.00 0.00 0.00 0.00 0.00 0.00 0.00 0.00 0.00 0.00 0.00 0.00 0.00 0.00 0.00 0.00 0.00 0.00 0.00 0.00
0.00 0.00 0.00 0.00 0.00 0.00 0.00 0.00 0.00 0.00 0.00 0.00 0.00 0.00 0.00 0.00 0.00 0.00 0.00 0.00 0.00 0.00 0.00 0.00 0.00 0.00 0.00 0.00 0.00 0.00 0.00 0.00 0.00 0.00 0.00 0.10 0.20 0.23 0.25 0.33 0.40 0.49 0.58 0.69 0.79 0.84 0.90 0.73 0.56 0.37 0.18 0.09 0.00 0.00 0.00 0.00 0.00 0.00 0.00 0.00 0.00 0.20 0.40 0.42 0.45 0.50 0.55 0.55 0.55 0.62 0.70 0.80 0.90 1.05 1.20 1.27 1.35 1.50 1.65 1.80 1.95 2.05 2.15 2.40 2.65 2.83 3.00 2.95 2.89 2.96 3.03 2.81 2.60 2.20 1.80 1.62 1.45 1.46 1.46 1.41 1.36 1.25 1.14 1.09 1.04 0.96 0.87 0.75 0.63 0.58 0.54 0.41 0.27 0.18 0.08 0.08 0.08 0.08 0.08 0.06 0.04 0.02 0.00 0.00 0.00 0.00 0.00 0.00 0.00 0.00 0.00 0.00 0.00 0.00 0.00 0.00 0.00 0.00 0.00 0.00 0.00 0.00 0.00 0.00 0.00 0.00 0.00 0.00 0.00 0.00 0.00 0.00 0.00 0.00 0.00 0.00 0.00 0.00 0.00 0.00 0.00
0.00 0.00 0.00 0.00 0.00 0.00 0.00 0.00 0.00 0.00 0.00 0.00 0.00 0.00 0.00 0.00 0.00 0.00 0.00 0.00 0.00 0.00 0.00 0.00 0.00 0.00 0.00 0.00 0.00 0.00 0.00 0.00 0.00 0.00 0.00 0.11 0.23 0.25 0.28 0.38 0.48 0.56 0.65 0.76 0.87 0.88 0.89 0.71 0.53 0.34 0.15 0.08 0.00 0.00 0.00 0.00 0.00 0.00 0.00 0.00 0.00 0.16 0.33 0.35 0.38 0.44 0.50 0.50 0.50 0.56 0.62 0.76 0.90 1.09 1.27 1.38 1.48 1.64 1.80 1.96 2.12 2.22 2.33 2.54 2.75 2.92 3.10 3.04 2.98 3.04 3.08 2.87 2.66 2.35 2.04 1.90 1.77 1.78 1.79 1.74 1.68 1.58 1.48 1.38 1.27 1.12 0.98 0.91 0.83 0.80 0.76 0.58 0.40 0.29 0.17 0.16 0.14 0.15 0.16 0.13 0.10 0.06 0.02 0.01 0.00 0.00 0.00 0.00 0.00 0.00 0.00 0.00 0.00 0.00 0.00 0.00 0.00 0.00 0.00 0.00 0.00 0.00 0.00 0.00 0.00 0.00 0.00 0.00 0.00 0.00 0.00 0.00 0.00 0.00 0.00 0.00 0.00 0.00 0.00 0.00 0.00
0.00 0.00 0.00 0.00 0.00 0.00 0.00 0.00 0.00 0.00 0.00 0.00 0.00 0.00 0.00 0.00 0.00 0.00 0.00 0.00 0.00 0.00 0.00 0.00 0.00 0.00 0.00 0.00 0.00 0.00 0.00 0.00 0.00 0.00 0.00 0.12 0.25 0.28 0.30 0.43 0.55 0.63 0.71 0.83 0.95 0.91 0.87 0.69 0.50 0.31 0.13 0.07 0.00 0.00 0.00 0.00 0.00 0.00 0.00 0.00 0.00 0.12 0.25 0.28 0.30 0.38 0.45 0.45 0.45 0.50 0.55 0.72 0.90 1.12 1.35 1.48 1.60 1.78 1.95 2.12 2.30 2.40 2.50 2.67 2.85 3.03 3.20 3.14 3.08 3.11 3.14 2.93 2.72 2.50 2.28 2.18 2.08 2.10 2.13 2.06 2.00 1.92 1.83 1.66 1.49 1.29 1.08 1.06 1.04 1.01 0.98 0.76 0.53 0.40 0.26 0.23 0.20 0.22 0.24 0.20 0.16 0.10 0.04 0.02 0.00 0.00 0.00 0.00 0.00 0.00 0.00 0.00 0.00 0.00 0.00 0.00 0.00 0.00 0.00 0.00 0.00 0.00 0.00 0.00 0.00 0.00 0.00 0.00 0.00 0.00 0.00 0.00 0.00 0.00 0.00 0.00 0.00 0.00 0.00 0.00 0.00
0.00 0.00 0.00 0.00 0.00 0.00 0.00 0.00 0.00 0.00 0.00 0.00 0.00 0.00 0.00 0.00 0.00 0.00 0.00 0.00 0.00 0.00 0.00 0.00 0.00 0.00 0.00 0.00 0.00 0.00 0.00 0.01 0.01 0.03 0.04 0.16 0.28 0.31 0.35 0.49 0.62 0.79 0.96 1.04 1.11 1.07 1.02 0.76 0.51 0.32 0.13 0.07 0.00 0.00 0.00 0.00 0.00 0.00 0.00 0.00 0.00 0.15 0.30 0.31 0.32 0.45 0.57 0.57 0.57 0.62 0.68 0.80 0.93 1.19 1.45 1.57 1.70 1.91 2.12 2.34 2.55 2.69 2.83 2.96 3.10 3.23 3.35 3.27 3.18 3.17 3.15 2.99 2.82 2.65 2.47 2.40 2.33 2.29 2.24 2.15 2.05 2.00 1.95 1.76 1.58 1.38 1.17 1.18 1.19 1.16 1.14 1.03 0.94 0.77 0.61 0.60 0.58 0.61 0.65 0.59 0.54 0.31 0.09 0.04 0.00 0.00 0.00 0.00 0.00 0.00 0.00 0.00 0.00 0.00 0.00 0.00 0.00 0.00 0.00 0.00 0.00 0.00 0.00 0.00 0.00 0.00 0.00 0.00 0.00 0.00 0.00 0.00 0.00 0.00 0.00 0.00 0.00 0.00 0.00 0.00 0.00
0.00 0.00 0.00 0.00 0.00 0.00 0.00 0.00 0.00 0.00 0.00 0.00 0.00 0.00 0.00 0.00 0.00 0.00 0.00 0.00 0.00 0.00 0.00 0.00 0.00 0.00 0.00 0.00 0.00 0.00 0.00 0.01 0.02 0.06 0.09 0.20 0.30 0.35 0.40 0.55 0.70 0.96 1.22 1.25 1.28 1.23 1.18 0.84 0.51 0.32 0.13 0.07 0.00 0.00 0.00 0.00 0.00 0.00 0.00 0.00 0.00 0.17 0.35 0.35 0.35 0.52 0.70 0.70 0.70 0.75 0.80 0.88 0.95 1.25 1.55 1.68 1.80 2.05 2.30 2.55 2.80 2.98 3.15 3.25 3.35 3.42 3.50 3.39 3.28 3.22 3.17 3.04 2.92 2.79 2.66 2.62 2.59 2.47 2.36 2.23 2.10 2.08 2.06 1.86 1.67 1.46 1.26 1.30 1.34 1.31 1.29 1.31 1.34 1.15 0.96 0.96 0.97 1.01 1.05 0.99 0.92 0.53 0.13 0.07 0.00 0.00 0.00 0.00 0.00 0.00 0.00 0.00 0.00 0.00 0.00 0.00 0.00 0.00 0.00 0.00 0.00 0.00 0.00 0.00 0.00 0.00 0.00 0.00 0.00 0.00 0.00 0.00 0.00 0.00 0.00 0.00 0.00 0.00 0.00 0.00 0.00
0.00 0.00 0.00 0.00 0.00 0.00 0.00 0.00 0.00 0.00 0.00 0.00 0.00 0.00 0.00 0.00 0.00 0.00 0.00 0.00 0.00 0.00 0.00 0.00 0.00 0.00 0.00 0.00 0.00 0.01 0.01 0.07 0.12 0.15 0.17 0.27 0.37 0.44 0.52 0.66 0.81 1.00 1.19 1.21 1.23 1.19 1.15 0.85 0.55 0.34 0.14 0.07 0.00 0.00 0.00 0.00 0.00 0.00 0.00 0.00 0.00 0.16 0.33 0.34 0.35 0.51 0.67 0.69 0.70 0.76 0.83 0.91 1.00 1.27 1.55 1.68 1.80 2.05 2.30 2.52 2.75 2.97 3.20 3.33 3.45 3.44 3.42 3.37 3.31 3.22 3.12 2.95 2.78 2.74 2.69 2.67 2.64 2.51 2.39 2.30 2.21 2.28 2.34 2.15 1.95 1.72 1.50 1.54 1.58 1.59 1.61 1.59 1.57 1.38 1.18 1.16 1.15 1.20 1.25 1.16 1.07 0.68 0.28 0.16 0.04 0.04 0.04 0.03 0.02 0.01 0.00 0.00 0.00 0.00 0.00 0.00 0.00 0.00 0.00 0.00 0.00 0.00 0.00 0.00 0.00 0.00 0.00 0.00 0.00 0.00 0.00 0.00 0.00 0.00 0.00 0.00 0.00 0.00 0.00 0.00 0.00
0.00 0.00 0.00 0.00 0.00 0.00 0.00 0.00 0.00 0.00 0.00 0.00 0.00 0.00 0.00 0.00 0.00 0.00 0.00 0.00 0.00 0.00 0.00 0.00 0.00 0.00 0.00 0.00 0.00 0.01 0.02 0.12 0.22 0.23 0.25 0.34 0.44 0.54 0.64 0.78 0.91 1.03 1.16 1.17 1.18 1.15 1.12 0.85 0.59 0.37 0.15 0.07 0.00 0.00 0.00 0.00 0.00 0.00 0.00 0.00 0.00 0.15 0.30 0.32 0.35 0.50 0.65 0.68 0.70 0.78 0.85 0.95 1.05 1.30 1.55 1.68 1.80 2.05 2.30 2.50 2.70 2.98 3.25 3.40 3.55 3.45 3.35 3.34 3.34 3.21 3.08 2.86 2.64 2.68 2.72 2.71 2.69 2.55 2.42 2.38 2.33 2.48 2.63 2.42 2.22 1.98 1.73 1.77 1.81 1.88 1.94 1.87 1.80 1.60 1.40 1.36 1.32 1.39 1.46 1.34 1.22 0.83 0.43 0.26 0.08 0.08 0.08 0.06 0.04 0.02 0.00 0.00 0.00 0.00 0.00 0.00 0.00 0.00 0.00 0.00 0.00 0.00 0.00 0.00 0.00 0.00 0.00 0.00 0.00 0.00 0.00 0.00 0.00 0.00 0.00 0.00 0.00 0.00 0.00 0.00 0.00
0.00 0.00 0.00 0.00 0.00 0.00 0.00 0.00 0.00 0.00 0.00 0.00 0.00 0.00 0.00 0.00 0.00 0.00 0.00 0.00 0.00 0.00 0.00 0.00 0.00 0.00 0.00 0.03 0.05 0.10 0.15 0.23 0.33 0.33 0.34 0.44 0.55 0.69 0.84 0.94 1.04 1.15 1.25 1.23 1.22 1.18 1.15 0.88 0.61 0.39 0.16 0.08 0.00 0.00 0.00 0.00 0.00 0.00 0.00 0.00 0.00 0.14 0.28 0.32 0.38 0.51 0.65 0.68 0.70 0.78 0.85 0.95 1.05 1.28 1.50 1.66 1.83 2.09 2.35 2.53 2.70 2.95 3.20 3.36 3.52 3.41 3.30 3.27 3.25 3.13 3.01 2.79 2.57 2.62 2.67 2.69 2.71 2.52 2.33 2.23 2.12 2.33 2.54 2.32 2.10 1.94 1.78 1.84 1.90 1.98 2.06 2.01 1.97 1.81 1.65 1.56 1.48 1.48 1.48 1.36 1.25 0.86 0.47 0.30 0.12 0.11 0.10 0.07 0.04 0.02 0.00 0.00 0.00 0.00 0.00 0.00 0.00 0.00 0.00 0.00 0.00 0.00 0.00 0.00 0.00 0.00 0.00 0.00 0.00 0.00 0.00 0.00 0.00 0.00 0.00 0.00 0.00 0.00 0.00 0.00 0.00
0.00 0.00 0.00 0.00 0.00 0.00 0.00 0.00 0.00 0.00 0.00 0.00 0.00 0.00 0.00 0.00 0.00 0.00 0.00 0.00 0.00 0.00 0.00 0.00 0.00 0.00 0.00 0.05 0.10 0.18 0.27 0.35 0.43 0.43 0.44 0.55 0.65 0.84 1.04 1.11 1.18 1.25 1.33 1.29 1.26 1.21 1.17 0.90 0.63 0.40 0.18 0.09 0.00 0.00 0.00 0.00 0.00 0.00 0.00 0.00 0.00 0.12 0.25 0.33 0.40 0.53 0.65 0.68 0.70 0.78 0.85 0.95 1.05 1.25 1.45 1.65 1.85 2.12 2.40 2.55 2.70 2.93 3.15 3.33 3.50 3.38 3.25 3.20 3.15 3.05 2.95 2.73 2.50 2.55 2.61 2.67 2.73 2.49 2.24 2.08 1.92 2.19 2.46 2.22 1.98 1.91 1.83 1.91 1.98 2.08 2.19 2.16 2.13 2.01 1.90 1.77 1.64 1.57 1.51 1.39 1.27 0.90 0.52 0.34 0.16 0.14 0.12 0.08 0.04 0.02 0.00 0.00 0.00 0.00 0.00 0.00 0.00 0.00 0.00 0.00 0.00 0.00 0.00 0.00 0.00 0.00 0.00 0.00 0.00 0.00 0.00 0.00 0.00 0.00 0.00 0.00 0.00 0.00 0.00 0.00 0.00
0.00 0.00 0.00 0.00 0.00 0.00 0.00 0.00 0.00 0.00 0.00 0.00 0.00 0.00 0.00 0.00 0.00 0.00 0.00 0.00 0.00 0.00 0.00 0.00 0.00 0.04 0.07 0.11 0.14 0.21 0.29 0.39 0.48 0.54 0.59 0.71 0.82 0.99 1.16 1.19 1.23 1.19 1.16 1.09 1.02 0.99 0.96 0.76 0.57 0.38 0.18 0.09 0.00 0.00 0.00 0.00 0.00 0.00 0.00 0.00 0.00 0.11 0.22 0.31 0.40 0.53 0.65 0.68 0.70 0.78 0.85 0.95 1.05 1.19 1.32 1.52 1.73 1.99 2.25 2.38 2.50 2.70 2.90 3.03 3.15 2.99 2.83 2.76 2.70 2.65 2.60 2.41 2.21 2.34 2.46 2.59 2.73 2.52 2.32 2.17 2.01 2.23 2.44 2.13 1.82 1.75 1.67 1.75 1.82 2.02 2.21 2.18 2.15 2.14 2.13 1.96 1.77 1.72 1.67 1.48 1.30 0.94 0.58 0.40 0.22 0.19 0.16 0.12 0.08 0.04 0.00 0.00 0.00 0.00 0.00 0.00 0.00 0.00 0.00 0.00 0.00 0.00 0.00 0.00 0.00 0.00 0.00 0.00 0.00 0.00 0.00 0.00 0.00 0.00 0.00 0.00 0.00 0.00 0.00 0.00 0.00
0.00 0.00 0.00 0.00 0.00 0.00 0.00 0.00 0.00 0.00 0.00 0.00 0.00 0.00 0.00 0.00 0.00 0.00 0.00 0.00 0.00 0.00 0.00 0.00 0.00 0.07 0.15 0.16 0.17 0.23 0.30 0.42 0.54 0.65 0.75 0.87 0.99 1.13 1.27 1.27 1.27 1.13 0.99 0.89 0.78 0.76 0.74 0.62 0.51 0.35 0.19 0.10 0.00 0.00 0.00 0.00 0.00 0.00 0.00 0.00 0.00 0.10 0.20 0.30 0.40 0.53 0.65 0.68 0.70 0.78 0.85 0.95 1.05 1.12 1.20 1.40 1.60 1.85 2.10 2.20 2.30 2.47 2.65 2.72 2.80 2.60 2.40 2.33 2.25 2.25 2.25 2.09 1.93 2.12 2.31 2.52 2.72 2.56 2.40 2.25 2.10 2.26 2.42 2.04 1.66 1.59 1.52 1.59 1.67 1.95 2.23 2.20 2.17 2.27 2.37 2.14 1.91 1.86 1.82 1.57 1.32 0.98 0.65 0.47 0.28 0.24 0.20 0.16 0.12 0.06 0.00 0.00 0.00 0.00 0.00 0.00 0.00 0.00 0.00 0.00 0.00 0.00 0.00 0.00 0.00 0.00 0.00 0.00 0.00 0.00 0.00 0.00 0.00 0.00 0.00 0.00 0.00 0.00 0.00 0.00 0.00
0.00 0.00 0.00 0.00 0.00 0.00 0.00 0.00 0.00 0.00 0.00 0.00 0.00 0.00 0.00 0.00 0.00 0.00 0.00 0.04 0.08 0.08 0.09 0.09 0.09 0.14 0.20 0.19 0.18 0.27 0.36 0.55 0.74 0.85 0.97 1.05 1.14 1.25 1.38 1.33 1.28 1.10 0.92 0.80 0.68 0.66 0.64 0.52 0.40 0.27 0.14 0.07 0.00 0.00 0.00 0.00 0.00 0.00 0.00 0.00 0.00 0.09 0.18 0.28 0.38 0.50 0.62 0.65 0.67 0.75 0.82 0.93 1.02 1.06 1.10 1.24 1.38 1.59 1.80 1.89 1.98 2.14 2.30 2.38 2.45 2.27 2.10 2.10 2.10 2.12 2.15 2.00 1.86 2.02 2.17 2.35 2.53 2.38 2.23 2.08 1.92 2.01 2.10 1.79 1.48 1.46 1.44 1.53 1.63 1.89 2.14 2.23 2.31 2.45 2.58 2.39 2.20 2.11 2.02 1.75 1.48 1.12 0.76 0.58 0.41 0.34 0.28 0.20 0.12 0.06 0.00 0.00 0.00 0.00 0.00 0.00 0.00 0.00 0.00 0.00 0.00 0.00 0.00 0.00 0.00 0.00 0.00 0.00 0.00 0.00 0.00 0.00 0.00 0.00 0.00 0.00 0.00 0.00 0.00 0.00 0.00
0.00 0.00 0.00 0.00 0.00 0.00 0.00 0.00 0.00 0.00 0.00 0.00 0.00 0.00 0.00 0.00 0.00 0.00 0.00 0.08 0.16 0.17 0.18 0.18 0.18 0.21 0.25 0.22 0.20 0.32 0.43 0.68 0.93 1.06 1.19 1.23 1.28 1.38 1.48 1.39 1.30 1.07 0.85 0.72 0.59 0.56 0.53 0.41 0.28 0.18 0.09 0.04 0.00 0.00 0.00 0.00 0.00 0.00 0.00 0.00 0.00 0.07 0.15 0.25 0.35 0.47 0.60 0.62 0.65 0.73 0.80 0.90 1.00 1.00 1.00 1.07 1.15 1.32 1.50 1.58 1.65 1.80 1.95 2.02 2.10 1.95 1.80 1.88 1.95 2.00 2.05 1.92 1.79 1.91 2.03 2.18 2.33 2.20 2.07 1.90 1.73 1.76 1.79 1.54 1.30 1.33 1.36 1.48 1.59 1.82 2.05 2.25 2.46 2.62 2.79 2.64 2.49 2.36 2.23 1.93 1.64 1.25 0.87 0.70 0.53 0.44 0.35 0.23 0.12 0.06 0.00 0.00 0.00 0.00 0.00 0.00 0.00 0.00 0.00 0.00 0.00 0.00 0.00 0.00 0.00 0.00 0.00 0.00 0.00 0.00 0.00 0.00 0.00 0.00 0.00 0.00 0.00 0.00 0.00 0.00 0.00
0.00 0.00 0.00 0.00 0.00 0.00 0.00 0.00 0.00 0.00 0.00 0.00 0.00 0.00 0.00 0.00 0.00 0.04 0.09 0.12 0.16 0.15 0.14 0.16 0.17 0.20 0.22 0.26 0.30 0.44 0.58 0.84 1.09 1.23 1.38 1.43 1.49 1.49 1.49 1.39 1.28 1.04 0.80 0.65 0.50 0.44 0.38 0.29 0.19 0.12 0.06 0.03 0.00 0.00 0.00 0.00 0.00 0.00 0.00 0.00 0.00 0.04 0.07 0.19 0.30 0.39 0.47 0.51 0.55 0.62 0.70 0.84 0.98 0.93 0.88 0.94 1.00 1.11 1.23 1.30 1.38 1.55 1.73 1.85 1.98 1.85 1.73 1.81 1.90 1.94 1.98 1.86 1.75 1.80 1.86 2.02 2.19 2.10 2.01 1.88 1.75 1.71 1.67 1.48 1.30 1.32 1.34 1.46 1.57 1.79 2.00 2.16 2.31 2.53 2.76 2.61 2.46 2.33 2.19 1.92 1.66 1.42 1.19 0.99 0.78 0.75 0.72 0.61 0.51 0.43 0.35 0.30 0.25 0.23 0.20 0.12 0.04 0.02 0.00 0.00 0.00 0.00 0.00 0.00 0.00 0.00 0.00 0.00 0.00 0.00 0.00 0.00 0.00 0.00 0.00 0.00 0.00 0.00 0.00 0.00 0.00
0.00 0.00 0.00 0.00 0.00 0.00 0.00 0.00 0.00 0.00 0.00 0.00 0.00 0.00 0.00 0.00 0.00 0.09 0.18 0.17 0.16 0.14 0.11 0.14 0.16 0.17 0.19 0.30 0.40 0.56 0.73 0.99 1.26 1.41 1.56 1.64 1.71 1.60 1.50 1.38 1.26 1.01 0.76 0.58 0.41 0.32 0.23 0.17 0.10 0.07 0.03 0.01 0.00 0.00 0.00 0.00 0.00 0.00 0.00 0.00 0.00 0.00 0.00 0.12 0.25 0.30 0.35 0.40 0.45 0.53 0.60 0.77 0.95 0.85 0.75 0.80 0.85 0.90 0.95 1.02 1.10 1.30 1.50 1.67 1.85 1.75 1.65 1.75 1.85 1.88 1.90 1.80 1.70 1.70 1.70 1.87 2.04 2.00 1.96 1.86 1.77 1.66 1.55 1.43 1.30 1.31 1.32 1.44 1.55 1.75 1.96 2.06 2.16 2.44 2.72 2.58 2.44 2.29 2.15 1.92 1.68 1.59 1.51 1.27 1.03 1.06 1.08 0.99 0.89 0.79 0.70 0.60 0.50 0.45 0.41 0.25 0.09 0.04 0.00 0.00 0.00 0.00 0.00 0.00 0.00 0.00 0.00 0.00 0.00 0.00 0.00 0.00 0.00 0.00 0.00 0.00 0.00 0.00 0.00 0.00 0.00
0.00 0.00 0.00 0.00 0.00 0.00 0.00 0.00 0.00 0.00 0.00 0.00 0.00 0.00 0.00 0.04 0.07 0.12 0.17 0.15 0.14 0.13 0.12 0.17 0.22 0.24 0.27 0.41 0.55 0.69 0.83 1.09 1.35 1.49 1.62 1.65 1.67 1.55 1.44 1.27 1.10 0.86 0.62 0.44 0.27 0.21 0.14 0.10 0.06 0.04 0.01 0.01 0.00 0.00 0.00 0.00 0.00 0.00 0.00 0.00 0.00 0.00 0.00 0.14 0.28 0.32 0.38 0.41 0.45 0.51 0.57 0.75 0.92 0.81 0.70 0.75 0.80 0.84 0.88 0.95 1.03 1.20 1.38 1.47 1.57 1.48 1.38 1.47 1.57 1.65 1.72 1.65 1.57 1.64 1.70 1.82 1.94 1.92 1.90 1.79 1.68 1.59 1.51 1.37 1.23 1.26 1.29 1.39 1.48 1.62 1.76 1.93 2.10 2.34 2.58 2.51 2.45 2.31 2.17 2.06 1.95 1.83 1.73 1.50 1.27 1.29 1.31 1.19 1.06 0.94 0.82 0.69 0.57 0.52 0.48 0.30 0.11 0.06 0.00 0.00 0.00 0.00 0.00 0.00 0.00 0.00 0.00 0.00 0.00 0.00 0.00 0.00 0.00 0.00 0.00 0.00 0.00 0.00 0.00 0.00 0.00
0.00 0.00 0.00 0.00 0.00 0.00 0.00 0.00 0.00 0.00 0.00 0.00 0.00 0.00 0.00 0.07 0.15 0.15 0.15 0.13 0.11 0.12 0.13 0.20 0.27 0.31 0.34 0.52 0.70 0.82 0.94 1.19 1.44 1.56 1.69 1.66 1.62 1.50 1.38 1.17 0.95 0.71 0.48 0.30 0.13 0.09 0.05 0.03 0.01 0.01 0.00 0.00 0.00 0.00 0.00 0.00 0.00 0.00 0.00 0.00 0.00 0.00 0.00 0.15 0.30 0.35 0.40 0.42 0.45 0.50 0.55 0.72 0.90 0.78 0.65 0.70 0.75 0.77 0.80 0.88 0.95 1.10 1.25 1.27 1.30 1.20 1.10 1.20 1.30 1.43 1.55 1.50 1.45 1.57 1.70 1.77 1.83 1.84 1.85 1.72 1.58 1.52 1.47 1.31 1.16 1.21 1.27 1.34 1.42 1.49 1.56 1.80 2.04 2.24 2.43 2.45 2.46 2.33 2.19 2.20 2.21 2.08 1.94 1.73 1.51 1.53 1.55 1.39 1.23 1.08 0.93 0.79 0.64 0.59 0.55 0.34 0.13 0.07 0.00 0.00 0.00 0.00 0.00 0.00 0.00 0.00 0.00 0.00 0.00 0.00 0.00 0.00 0.00 0.00 0.00 0.00 0.00 0.00 0.00 0.00 0.00
0.00 0.00 0.00 0.00 0.00 0.00 0.00 0.00 0.00 0.00 0.00 0.04 0.07 0.07 0.07 0.10 0.12 0.13 0.14 0.14 0.14 0.19 0.24 0.34 0.44 0.52 0.59 0.76 0.92 0.99 1.06 1.24 1.43 1.55 1.67 1.60 1.53 1.40 1.28 1.09 0.90 0.67 0.45 0.27 0.10 0.07 0.04 0.02 0.01 0.00 0.00 0.00 0.00 0.00 0.00 0.00 0.00 0.00 0.00 0.00 0.00 0.00 0.00 0.14 0.28 0.35 0.42 0.45 0.47 0.50 0.53 0.70 0.88 0.76 0.65 0.65 0.65 0.69 0.72 0.85 0.97 1.08 1.18 1.23 1.27 1.18 1.07 1.12 1.18 1.29 1.40 1.41 1.42 1.56 1.70 1.76 1.81 1.84 1.88 1.73 1.58 1.50 1.43 1.23 1.04 1.11 1.17 1.22 1.28 1.38 1.48 1.69 1.90 2.13 2.36 2.39 2.41 2.31 2.21 2.23 2.23 2.10 1.97 1.79 1.61 1.65 1.69 1.57 1.45 1.27 1.09 0.96 0.81 0.78 0.74 0.52 0.29 0.18 0.06 0.06 0.05 0.04 0.04 0.04 0.04 0.02 0.00 0.00 0.00 0.00 0.00 0.00 0.00 0.00 0.00 0.00 0.00 0.00 0.00 0.00 0.00
0.00 0.00 0.00 0.00 0.00 0.00 0.00 0.00 0.00 0.00 0.00 0.07 0.15 0.15 0.15 0.12 0.10 0.11 0.12 0.14 0.16 0.26 0.35 0.48 0.61 0.73 0.85 0.99 1.14 1.17 1.19 1.30 1.41 1.53 1.65 1.54 1.44 1.31 1.18 1.01 0.85 0.64 0.42 0.24 0.06 0.04 0.02 0.01 0.00 0.00 0.00 0.00 0.00 0.00 0.00 0.00 0.00 0.00 0.00 0.00 0.00 0.00 0.00 0.12 0.25 0.35 0.45 0.47 0.50 0.50 0.50 0.68 0.85 0.75 0.65 0.60 0.55 0.60 0.65 0.82 1.00 1.05 1.10 1.18 1.25 1.15 1.05 1.05 1.05 1.15 1.25 1.32 1.40 1.55 1.70 1.75 1.79 1.85 1.90 1.74 1.58 1.48 1.38 1.16 0.93 1.00 1.07 1.10 1.14 1.27 1.40 1.58 1.76 2.02 2.29 2.33 2.36 2.30 2.24 2.25 2.26 2.12 1.99 1.85 1.72 1.77 1.82 1.74 1.66 1.46 1.26 1.12 0.99 0.96 0.93 0.69 0.45 0.29 0.12 0.11 0.10 0.09 0.08 0.08 0.08 0.04 0.00 0.00 0.00 0.00 0.00 0.00 0.00 0.00 0.00 0.00 0.00 0.00 0.00 0.00 0.00
0.00 0.00 0.00 0.04 0.07 0.07 0.07 0.07 0.07 0.07 0.07 0.10 0.12 0.12 0.12 0.11 0.10 0.12 0.14 0.17 0.20 0.31 0.41 0.56 0.71 0.84 0.96 1.09 1.21 1.25 1.29 1.32 1.36 1.43 1.49 1.40 1.29 1.16 1.03 0.86 0.70 0.53 0.36 0.23 0.09 0.07 0.05 0.04 0.03 0.03 0.03 0.02 0.01 0.01 0.00 0.00 0.00 0.00 0.00 0.00 0.00 0.00 0.00 0.11 0.22 0.32 0.43 0.46 0.50 0.53 0.55 0.69 0.82 0.74 0.65 0.61 0.58 0.61 0.65 0.84 1.02 1.14 1.25 1.30 1.35 1.26 1.18 1.19 1.20 1.19 1.18 1.18 1.18 1.32 1.48 1.52 1.57 1.60 1.64 1.54 1.45 1.42 1.39 1.19 0.99 1.05 1.10 1.13 1.15 1.23 1.30 1.41 1.52 1.73 1.94 2.02 2.10 2.09 2.08 2.15 2.21 2.07 1.93 1.83 1.74 1.81 1.88 1.83 1.78 1.58 1.37 1.23 1.08 1.11 1.14 0.95 0.75 0.64 0.52 0.49 0.47 0.46 0.45 0.34 0.23 0.14 0.04 0.02 0.00 0.00 0.00 0.00 0.00 0.00 0.00 0.00 0.00 0.00 0.00 0.00 0.00
0.00 0.00 0.00 0.07 0.15 0.15 0.15 0.15 0.15 0.15 0.15 0.12 0.10 0.10 0.10 0.10 0.10 0.13 0.16 0.20 0.24 0.36 0.48 0.65 0.82 0.95 1.07 1.18 1.29 1.34 1.39 1.35 1.31 1.33 1.34 1.25 1.15 1.01 0.88 0.71 0.54 0.42 0.30 0.21 0.12 0.10 0.08 0.07 0.05 0.05 0.05 0.04 0.03 0.01 0.00 0.00 0.00 0.00 0.00 0.00 0.00 0.00 0.00 0.10 0.20 0.30 0.40 0.45 0.50 0.55 0.60 0.70 0.80 0.72 0.65 0.62 0.60 0.62 0.65 0.85 1.05 1.23 1.40 1.43 1.45 1.38 1.30 1.33 1.35 1.23 1.10 1.02 0.95 1.10 1.25 1.30 1.35 1.36 1.38 1.35 1.31 1.35 1.40 1.23 1.05 1.09 1.14 1.15 1.16 1.18 1.20 1.23 1.27 1.43 1.58 1.71 1.85 1.89 1.93 2.05 2.17 2.02 1.86 1.81 1.76 1.85 1.94 1.92 1.90 1.69 1.48 1.33 1.18 1.27 1.35 1.20 1.05 0.99 0.92 0.88 0.84 0.82 0.81 0.59 0.38 0.23 0.08 0.04 0.00 0.00 0.00 0.00 0.00 0.00 0.00 0.00 0.00 0.00 0.00 0.00 0.00
0.07 0.07 0.07 0.11 0.15 0.14 0.12 0.12 0.12 0.12 0.12 0.12 0.12 0.11 0.11 0.12 0.13 0.21 0.28 0.33 0.38 0.50 0.63 0.76 0.90 0.98 1.06 1.15 1.24 1.27 1.29 1.28 1.26 1.24 1.21 1.10 0.98 0.86 0.73 0.61 0.48 0.40 0.30 0.21 0.12 0.11 0.09 0.08 0.06 0.06 0.06 0.05 0.04 0.02 0.01 0.00 0.00 0.00 0.00 0.00 0.00 0.00 0.00 0.10 0.20 0.29 0.38 0.42 0.47 0.53 0.57 0.65 0.72 0.64 0.55 0.55 0.55 0.57 0.60 0.80 1.00 1.18 1.35 1.39 1.42 1.36 1.30 1.30 1.30 1.16 1.03 0.99 0.95 1.12 1.30 1.34 1.38 1.40 1.42 1.38 1.35 1.37 1.39 1.21 1.02 1.06 1.10 1.12 1.14 1.15 1.16 1.16 1.16 1.30 1.44 1.55 1.66 1.67 1.69 1.81 1.93 1.80 1.67 1.63 1.59 1.73 1.86 1.90 1.94 1.74 1.54 1.37 1.20 1.28 1.37 1.23 1.09 1.04 0.98 0.98 0.98 0.96 0.93 0.72 0.50 0.30 0.10 0.05 0.00 0.00 0.00 0.00 0.00 0.00 0.00 0.00 0.00 0.00 0.00 0.00 0.00
0.15 0.15 0.15 0.15 0.15 0.12 0.10 0.10 0.10 0.10 0.10 0.12 0.13 0.12 0.12 0.14 0.16 0.28 0.41 0.46 0.51 0.65 0.78 0.88 0.97 1.01 1.05 1.12 1.19 1.19 1.20 1.21 1.22 1.15 1.08 0.95 0.82 0.70 0.58 0.51 0.43 0.37 0.31 0.22 0.13 0.11 0.10 0.09 0.07 0.07 0.06 0.05 0.04 0.02 0.01 0.01 0.00 0.00 0.00 0.00 0.00 0.00 0.00 0.10 0.20 0.28 0.35 0.40 0.45 0.50 0.55 0.60 0.65 0.55 0.45 0.47 0.50 0.53 0.55 0.75 0.95 1.12 1.30 1.35 1.40 1.35 1.30 1.27 1.25 1.10 0.95 0.95 0.95 1.15 1.35 1.38 1.40 1.43 1.45 1.42 1.39 1.39 1.39 1.19 0.98 1.02 1.06 1.09 1.12 1.12 1.11 1.08 1.04 1.17 1.30 1.39 1.47 1.46 1.44 1.56 1.69 1.58 1.48 1.46 1.43 1.61 1.79 1.89 1.98 1.79 1.60 1.41 1.22 1.30 1.39 1.26 1.13 1.08 1.04 1.08 1.12 1.08 1.05 0.83 0.62 0.37 0.12 0.06 0.00 0.00 0.00 0.00 0.00 0.00 0.00 0.00 0.00 0.00 0.00 0.00 0.00
0.21 0.19 0.16 0.16 0.16 0.14 0.12 0.12 0.12 0.11 0.10 0.11 0.12 0.13 0.14 0.17 0.20 0.34 0.49 0.58 0.67 0.81 0.95 1.06 1.17 1.21 1.25 1.24 1.23 1.24 1.25 1.22 1.20 1.05 0.91 0.76 0.61 0.54 0.47 0.42 0.37 0.30 0.23 0.18 0.12 0.11 0.10 0.09 0.07 0.07 0.06 0.05 0.04 0.02 0.01 0.01 0.00 0.00 0.00 0.00 0.00 0.00 0.00 0.09 0.18 0.24 0.30 0.34 0.38 0.43 0.47 0.55 0.62 0.55 0.47 0.50 0.53 0.55 0.58 0.74 0.90 1.01 1.12 1.16 1.20 1.16 1.12 1.10 1.07 0.96 0.85 0.84 0.82 1.02 1.23 1.25 1.27 1.31 1.35 1.36 1.37 1.40 1.42 1.21 0.99 1.01 1.03 1.02 1.01 0.95 0.88 0.81 0.75 0.83 0.93 1.01 1.09 1.11 1.14 1.24 1.35 1.26 1.18 1.15 1.12 1.27 1.43 1.52 1.61 1.51 1.41 1.26 1.11 1.20 1.28 1.22 1.17 1.14 1.12 1.14 1.16 1.14 1.11 0.90 0.68 0.44 0.20 0.10 0.00 0.00 0.00 0.00 0.00 0.00 0.00 0.00 0.00 0.00 0.00 0.00 0.00
0.27 0.22 0.18 0.18 0.17 0.15 0.13 0.14 0.15 0.12 0.10 0.11 0.12 0.14 0.15 0.19 0.23 0.41 0.58 0.70 0.83 0.98 1.12 1.25 1.37 1.40 1.44 1.35 1.27 1.28 1.29 1.23 1.18 0.96 0.74 0.57 0.41 0.39 0.36 0.33 0.31 0.23 0.14 0.13 0.12 0.11 0.10 0.09 0.07 0.07 0.06 0.05 0.04 0.02 0.01 0.01 0.00 0.00 0.00 0.00 0.00 0.00 0.00 0.07 0.15 0.20 0.25 0.28 0.30 0.35 0.40 0.50 0.60 0.55 0.50 0.53 0.55 0.57 0.60 0.72 0.85 0.90 0.95 0.97 1.00 0.98 0.95 0.92 0.90 0.82 0.75 0.73 0.70 0.90 1.10 1.12 1.15 1.20 1.25 1.30 1.35 1.40 1.45 1.23 1.00 1.00 1.00 0.95 0.90 0.78 0.65 0.55 0.45 0.50 0.55 0.63 0.71 0.77 0.83 0.92 1.01 0.94 0.87 0.84 0.81 0.94 1.06 1.16 1.25 1.23 1.22 1.11 1.00 1.09 1.18 1.19 1.20 1.20 1.20 1.20 1.20 1.19 1.17 0.96 0.74 0.51 0.28 0.14 0.00 0.00 0.00 0.00 0.00 0.00 0.00 0.00 0.00 0.00 0.00 0.00 0.00
0.22 0.20 0.17 0.16 0.15 0.14 0.14 0.14 0.14 0.12 0.10 0.11 0.11 0.12 0.13 0.19 0.24 0.42 0.60 0.73 0.85 0.97 1.09 1.21 1.32 1.34 1.37 1.30 1.24 1.22 1.21 1.16 1.11 0.89 0.66 0.53 0.40 0.37 0.34 0.32 0.30 0.21 0.13 0.12 0.12 0.11 0.10 0.09 0.07 0.07 0.06 0.05 0.04 0.02 0.01 0.01 0.00 0.00 0.00 0.00 0.00 0.00 0.00 0.05 0.10 0.15 0.20 0.23 0.25 0.30 0.35 0.45 0.55 0.53 0.50 0.53 0.55 0.57 0.60 0.70 0.80 0.84 0.88 0.90 0.93 0.90 0.88 0.85 0.82 0.76 0.70 0.69 0.67 0.83 0.98 1.00 1.02 1.07 1.12 1.18 1.23 1.25 1.27 1.10 0.93 0.91 0.90 0.84 0.78 0.65 0.53 0.41 0.30 0.34 0.38 0.41 0.44 0.52 0.58 0.66 0.73 0.73 0.72 0.68 0.63 0.73 0.82 0.90 0.98 1.02 1.06 1.00 0.93 1.01 1.09 1.11 1.14 1.11 1.08 1.09 1.10 1.07 1.05 0.89 0.72 0.50 0.28 0.16 0.04 0.02 0.00 0.00 0.00 0.00 0.00 0.00 0.00 0.00 0.00 0.00 0.00
0.17 0.17 0.16 0.14 0.12 0.14 0.15 0.14 0.12 0.11 0.10 0.11 0.11 0.11 0.11 0.18 0.26 0.44 0.62 0.75 0.88 0.97 1.06 1.17 1.27 1.29 1.30 1.25 1.20 1.17 1.13 1.08 1.04 0.81 0.59 0.49 0.39 0.36 0.32 0.30 0.29 0.20 0.12 0.12 0.12 0.11 0.10 0.09 0.07 0.07 0.06 0.05 0.04 0.02 0.01 0.01 0.00 0.00 0.00 0.00 0.00 0.00 0.00 0.03 0.05 0.10 0.15 0.17 0.20 0.25 0.30 0.40 0.50 0.50 0.50 0.53 0.55 0.57 0.60 0.68 0.75 0.77 0.80 0.83 0.85 0.82 0.80 0.78 0.75 0.70 0.65 0.65 0.65 0.75 0.85 0.88 0.90 0.95 1.00 1.05 1.10 1.10 1.10 0.98 0.85 0.82 0.80 0.72 0.65 0.53 0.40 0.28 0.15 0.17 0.20 0.19 0.18 0.26 0.34 0.40 0.46 0.52 0.58 0.52 0.45 0.52 0.59 0.65 0.71 0.81 0.91 0.89 0.86 0.93 1.00 1.04 1.08 1.02 0.96 0.98 1.00 0.97 0.93 0.81 0.70 0.49 0.28 0.18 0.08 0.04 0.00 0.00 0.00 0.00 0.00 0.00 0.00 0.00 0.00 0.00 0.00
0.14 0.15 0.15 0.13 0.11 0.12 0.14 0.13 0.12 0.12 0.12 0.12 0.12 0.12 0.12 0.20 0.27 0.42 0.56 0.62 0.68 0.75 0.81 0.93 1.05 1.06 1.06 0.99 0.92 0.90 0.87 0.86 0.84 0.65 0.46 0.40 0.34 0.33 0.31 0.28 0.26 0.18 0.11 0.11 0.11 0.11 0.10 0.09 0.07 0.07 0.06 0.05 0.04 0.02 0.01 0.01 0.00 0.00 0.00 0.00 0.00 0.00 0.00 0.01 0.03 0.05 0.07 0.10 0.12 0.18 0.23 0.33 0.43 0.44 0.45 0.50 0.55 0.55 0.55 0.60 0.65 0.65 0.65 0.68 0.70 0.68 0.65 0.65 0.65 0.60 0.55 0.55 0.55 0.61 0.68 0.69 0.70 0.74 0.77 0.85 0.93 0.93 0.93 0.84 0.75 0.71 0.68 0.61 0.55 0.42 0.30 0.20 0.10 0.10 0.10 0.10 0.09 0.16 0.23 0.28 0.33 0.40 0.47 0.43 0.39 0.42 0.46 0.48 0.52 0.60 0.69 0.69 0.69 0.77 0.85 0.91 0.96 0.94 0.92 0.91 0.91 0.90 0.89 0.79 0.70 0.56 0.42 0.33 0.24 0.17 0.10 0.07 0.04 0.02 0.00 0.00 0.00 0.00 0.00 0.00 0.00
0.11 0.12 0.14 0.12 0.10 0.11 0.12 0.12 0.12 0.13 0.14 0.14 0.13 0.14 0.14 0.21 0.28 0.39 0.50 0.49 0.48 0.52 0.57 0.70 0.84 0.83 0.82 0.73 0.64 0.62 0.61 0.63 0.65 0.49 0.33 0.31 0.29 0.29 0.30 0.27 0.23 0.17 0.10 0.10 0.10 0.10 0.10 0.09 0.07 0.07 0.06 0.05 0.04 0.02 0.01 0.01 0.00 0.00 0.00 0.00 0.00 0.00 0.00 0.00 0.00 0.00 0.00 0.03 0.05 0.10 0.15 0.25 0.35 0.38 0.40 0.48 0.55 0.53 0.50 0.53 0.55 0.53 0.50 0.53 0.55 0.53 0.50 0.53 0.55 0.50 0.45 0.45 0.45 0.47 0.50 0.50 0.50 0.53 0.55 0.65 0.75 0.75 0.75 0.70 0.65 0.60 0.55 0.50 0.45 0.33 0.20 0.12 0.05 0.03 0.00 0.00 0.00 0.06 0.12 0.16 0.20 0.28 0.36 0.34 0.32 0.32 0.32 0.32 0.32 0.39 0.46 0.48 0.51 0.60 0.70 0.77 0.84 0.86 0.88 0.85 0.82 0.83 0.85 0.77 0.70 0.63 0.56 0.48 0.40 0.30 0.20 0.14 0.08 0.04 0.00 0.00 0.00 0.00 0.00 0.00 0.00
0.11 0.12 0.13 0.12 0.10 0.12 0.12 0.13 0.13 0.12 0.12 0.12 0.12 0.12 0.12 0.17 0.22 0.30 0.38 0.39 0.40 0.43 0.47 0.59 0.71 0.69 0.68 0.59 0.51 0.48 0.46 0.49 0.53 0.39 0.27 0.24 0.22 0.23 0.23 0.22 0.20 0.13 0.06 0.06 0.06 0.06 0.07 0.06 0.04 0.04 0.04 0.03 0.02 0.02 0.01 0.01 0.00 0.00 0.00 0.00 0.00 0.00 0.00 0.00 0.00 0.00 0.00 0.01 0.03 0.05 0.07 0.16 0.25 0.28 0.30 0.36 0.43 0.41 0.40 0.41 0.43 0.38 0.32 0.34 0.35 0.34 0.32 0.34 0.35 0.32 0.30 0.33 0.35 0.38 0.40 0.39 0.38 0.40 0.43 0.54 0.65 0.64 0.62 0.57 0.53 0.49 0.45 0.41 0.38 0.25 0.12 0.07 0.03 0.01 0.00 0.00 0.00 0.05 0.10 0.13 0.16 0.22 0.28 0.26 0.24 0.23 0.22 0.22 0.22 0.27 0.31 0.33 0.35 0.39 0.43 0.45 0.48 0.51 0.54 0.54 0.55 0.57 0.58 0.57 0.55 0.52 0.48 0.44 0.40 0.30 0.20 0.14 0.08 0.04 0.00 0.00 0.00 0.00 0.00 0.00 0.00
0.10 0.11 0.12 0.11 0.11 0.12 0.13 0.14 0.14 0.12 0.10 0.11 0.11 0.11 0.11 0.13 0.15 0.21 0.26 0.29 0.32 0.34 0.37 0.47 0.58 0.55 0.53 0.45 0.38 0.34 0.30 0.35 0.40 0.30 0.20 0.18 0.15 0.15 0.16 0.17 0.17 0.10 0.02 0.02 0.02 0.03 0.03 0.03 0.02 0.02 0.01 0.01 0.01 0.01 0.01 0.01 0.00 0.00 0.00 0.00 0.00 0.00 0.00 0.00 0.00 0.00 0.00 0.00 0.00 0.00 0.00 0.07 0.15 0.17 0.20 0.25 0.30 0.30 0.30 0.30 0.30 0.23 0.15 0.15 0.15 0.15 0.15 0.15 0.15 0.15 0.15 0.20 0.25 0.28 0.30 0.28 0.25 0.28 0.30 0.43 0.55 0.53 0.50 0.45 0.40 0.38 0.35 0.32 0.30 0.17 0.05 0.03 0.00 0.00 0.00 0.00 0.00 0.04 0.08 0.10 0.12 0.16 0.20 0.18 0.16 0.14 0.12 0.12 0.12 0.14 0.16 0.18 0.20 0.18 0.16 0.14 0.12 0.16 0.20 0.24 0.28 0.30 0.32 0.36 0.40 0.40 0.40 0.40 0.40 0.30 0.20 0.14 0.08 0.04 0.00 0.00 0.00 0.00 0.00 0.00 0.00
0.10 0.11 0.11 0.11 0.11 0.11 0.11 0.10 0.08 0.07 0.06 0.06 0.06 0.06 0.06 0.08 0.10 0.15 0.21 0.23 0.26 0.28 0.31 0.41 0.52 0.49 0.46 0.40 0.34 0.31 0.28 0.29 0.30 0.20 0.10 0.09 0.07 0.08 0.08 0.08 0.09 0.05 0.01 0.01 0.01 0.01 0.01 0.01 0.01 0.01 0.01 0.01 0.01 0.01 0.01 0.00 0.00 0.00 0.00 0.00 0.00 0.00 0.00 0.00 0.00 0.00 0.00 0.00 0.00 0.00 0.00 0.06 0.12 0.15 0.18 0.21 0.25 0.25 0.25 0.25 0.25 0.19 0.12 0.11 0.10 0.09 0.07 0.07 0.07 0.07 0.07 0.10 0.12 0.14 0.15 0.14 0.12 0.15 0.18 0.30 0.43 0.41 0.40 0.38 0.35 0.34 0.33 0.30 0.28 0.15 0.03 0.01 0.00 0.00 0.00 0.00 0.00 0.02 0.04 0.05 0.06 0.08 0.10 0.09 0.08 0.07 0.06 0.06 0.06 0.07 0.08 0.09 0.10 0.10 0.10 0.10 0.10 0.13 0.16 0.18 0.20 0.22 0.24 0.28 0.32 0.34 0.36 0.36 0.36 0.28 0.20 0.14 0.08 0.04 0.00 0.00 0.00 0.00 0.00 0.00 0.00
0.10 0.10 0.10 0.11 0.12 0.11 0.10 0.06 0.02 0.02 0.01 0.01 0.00 0.00 0.00 0.03 0.05 0.10 0.15 0.17 0.20 0.23 0.25 0.35 0.45 0.43 0.40 0.35 0.30 0.28 0.25 0.22 0.20 0.10 0.00 0.00 0.00 0.00 0.00 0.00 0.00 0.00 0.00 0.00 0.00 0.00 0.00 0.00 0.00 0.00 0.00 0.00 0.00 0.00 0.00 0.00 0.00 0.00 0.00 0.00 0.00 0.00 0.00 0.00 0.00 0.00 0.00 0.00 0.00 0.00 0.00 0.05 0.10 0.12 0.15 0.17 0.20 0.20 0.20 0.20 0.20 0.15 0.10 0.07 0.05 0.03 0.00 0.00 0.00 0.00 0.00 0.00 0.00 0.00 0.00 0.00 0.00 0.03 0.05 0.17 0.30 0.30 0.30 0.30 0.30 0.30 0.30 0.28 0.25 0.12 0.00 0.00 0.00 0.00 0.00 0.00 0.00 0.00 0.00 0.00 0.00 0.00 0.00 0.00 0.00 0.00 0.00 0.00 0.00 0.00 0.00 0.00 0.00 0.02 0.04 0.06 0.08 0.10 0.12 0.12 0.12 0.14 0.16 0.20 0.24 0.28 0.32 0.32 0.32 0.26 0.20 0.14 0.08 0.04 0.00 0.00 0.00 0.00 0.00 0.00 0.00
0.05 0.05 0.05 0.06 0.06 0.06 0.05 0.03 0.01 0.01 0.01 0.00 0.00 0.00 0.00 0.01 0.03 0.05 0.07 0.09 0.10 0.11 0.12 0.17 0.23 0.21 0.20 0.17 0.15 0.14 0.12 0.11 0.10 0.05 0.00 0.00 0.00 0.00 0.00 0.00 0.00 0.00 0.00 0.00 0.00 0.00 0.00 0.00 0.00 0.00 0.00 0.00 0.00 0.00 0.00 0.00 0.00 0.00 0.00 0.00 0.00 0.00 0.00 0.00 0.00 0.00 0.00 0.00 0.00 0.00 0.00 0.03 0.05 0.06 0.07 0.09 0.10 0.10 0.10 0.10 0.10 0.08 0.05 0.04 0.03 0.01 0.00 0.00 0.00 0.00 0.00 0.00 0.00 0.00 0.00 0.00 0.00 0.01 0.03 0.09 0.15 0.15 0.15 0.15 0.15 0.15 0.15 0.14 0.12 0.06 0.00 0.00 0.00 0.00 0.00 0.00 0.00 0.00 0.00 0.00 0.00 0.00 0.00 0.00 0.00 0.00 0.00 0.00 0.00 0.00 0.00 0.00 0.00 0.01 0.02 0.03 0.04 0.05 0.06 0.06 0.06 0.07 0.08 0.10 0.12 0.14 0.16 0.16 0.16 0.13 0.10 0.07 0.04 0.02 0.00 0.00 0.00 0.00 0.00 0.00 0.00
0.00 0.00 0.00 0.00 0.00 0.00 0.00 0.00 0.00 0.00 0.00 0.00 0.00 0.00 0.00 0.00 0.00 0.00 0.00 0.00 0.00 0.00 0.00 0.00 0.00 0.00 0.00 0.00 0.00 0.00 0.00 0.00 0.00 0.00 0.00 0.00 0.00 0.00 0.00 0.00 0.00 0.00 0.00 0.00 0.00 0.00 0.00 0.00 0.00 0.00 0.00 0.00 0.00 0.00 0.00 0.00 0.00 0.00 0.00 0.00 0.00 0.00 0.00 0.00 0.00 0.00 0.00 0.00 0.00 0.00 0.00 0.00 0.00 0.00 0.00 0.00 0.00 0.00 0.00 0.00 0.00 0.00 0.00 0.00 0.00 0.00 0.00 0.00 0.00 0.00 0.00 0.00 0.00 0.00 0.00 0.00 0.00 0.00 0.00 0.00 0.00 0.00 0.00 0.00 0.00 0.00 0.00 0.00 0.00 0.00 0.00 0.00 0.00 0.00 0.00 0.00 0.00 0.00 0.00 0.00 0.00 0.00 0.00 0.00 0.00 0.00 0.00 0.00 0.00 0.00 0.00 0.00 0.00 0.00 0.00 0.00 0.00 0.00 0.00 0.00 0.00 0.00 0.00 0.00 0.00 0.00 0.00 0.00 0.00 0.00 0.00 0.00 0.00 0.00 0.00 0.00 0.00 0.00 0.00 0.00 0.00
0.00 0.00 0.00 0.00 0.00 0.00 0.00 0.00 0.00 0.00 0.00 0.00 0.00 0.00 0.00 0.00 0.00 0.00 0.00 0.00 0.00 0.00 0.00 0.00 0.00 0.00 0.00 0.00 0.00 0.00 0.00 0.00 0.00 0.00 0.00 0.00 0.00 0.00 0.00 0.00 0.00 0.00 0.00 0.00 0.00 0.00 0.00 0.00 0.00 0.00 0.00 0.00 0.00 0.00 0.00 0.00 0.00 0.00 0.00 0.00 0.00 0.00 0.00 0.00 0.00 0.00 0.00 0.00 0.00 0.00 0.00 0.00 0.00 0.00 0.00 0.00 0.00 0.00 0.00 0.00 0.00 0.00 0.00 0.00 0.00 0.00 0.00 0.00 0.00 0.00 0.00 0.00 0.00 0.00 0.00 0.00 0.00 0.00 0.00 0.00 0.00 0.00 0.00 0.00 0.00 0.00 0.00 0.00 0.00 0.00 0.00 0.00 0.00 0.00 0.00 0.00 0.00 0.00 0.00 0.00 0.00 0.00 0.00 0.00 0.00 0.00 0.00 0.00 0.00 0.00 0.00 0.00 0.00 0.00 0.00 0.00 0.00 0.00 0.00 0.00 0.00 0.00 0.00 0.00 0.00 0.00 0.00 0.00 0.00 0.00 0.00 0.00 0.00 0.00 0.00 0.00 0.00 0.00 0.00 0.00 0.00
0.00 0.00 0.00 0.00 0.00 0.00 0.00 0.00 0.00 0.00 0.00 0.00 0.00 0.00 0.00 0.00 0.00 0.00 0.00 0.00 0.00 0.00 0.00 0.00 0.00 0.00 0.00 0.00 0.00 0.00 0.00 0.00 0.00 0.00 0.00 0.00 0.00 0.00 0.00 0.00 0.00 0.00 0.00 0.00 0.00 0.00 0.00 0.00 0.00 0.00 0.00 0.00 0.00 0.00 0.00 0.00 0.00 0.00 0.00 0.00 0.00 0.00 0.00 0.00 0.00 0.00 0.00 0.00 0.00 0.00 0.00 0.00 0.00 0.00 0.00 0.00 0.00 0.00 0.00 0.00 0.00 0.00 0.00 0.00 0.00 0.00 0.00 0.00 0.00 0.00 0.00 0.00 0.00 0.00 0.00 0.00 0.00 0.00 0.00 0.00 0.00 0.00 0.00 0.00 0.00 0.00 0.00 0.00 0.00 0.00 0.00 0.00 0.00 0.00 0.00 0.00 0.00 0.00 0.00 0.00 0.00 0.00 0.00 0.00 0.00 0.00 0.00 0.00 0.00 0.00 0.00 0.00 0.00 0.00 0.00 0.00 0.00 0.00 0.00 0.00 0.00 0.00 0.00 0.00 0.00 0.00 0.00 0.00 0.00 0.00 0.00 0.00 0.00 0.00 0.00 0.00 0.00 0.00 0.00 0.00 0.00
0.00 0.00 0.00 0.00 0.00 0.00 0.00 0.00 0.00 0.00 0.00 0.00 0.00 0.00 0.00 0.00 0.00 0.00 0.00 0.00 0.00 0.00 0.00 0.00 0.00 0.00 0.00 0.00 0.00 0.00 0.00 0.00 0.00 0.00 0.00 0.00 0.00 0.00 0.00 0.00 0.00 0.00 0.00 0.00 0.00 0.00 0.00 0.00 0.00 0.00 0.00 0.00 0.00 0.00 0.00 0.00 0.00 0.00 0.00 0.00 0.00 0.00 0.00 0.00 0.00 0.00 0.00 0.00 0.00 0.00 0.00 0.00 0.00 0.00 0.00 0.00 0.00 0.00 0.00 0.00 0.00 0.00 0.00 0.00 0.00 0.00 0.00 0.00 0.00 0.00 0.00 0.00 0.00 0.00 0.00 0.00 0.00 0.00 0.00 0.00 0.00 0.00 0.00 0.00 0.00 0.00 0.00 0.00 0.00 0.00 0.00 0.00 0.00 0.00 0.00 0.00 0.00 0.00 0.00 0.00 0.00 0.00 0.00 0.00 0.00 0.00 0.00 0.00 0.00 0.00 0.00 0.00 0.00 0.00 0.00 0.00 0.00 0.00 0.00 0.00 0.00 0.00 0.00 0.00 0.00 0.00 0.00 0.00 0.00 0.00 0.00 0.00 0.00 0.00 0.00 0.00 0.00 0.00 0.00 0.00 0.00
0.00 0.00 0.00 0.00 0.00 0.00 0.00 0.00 0.00 0.00 0.00 0.00 0.00 0.00 0.00 0.00 0.00 0.00 0.00 0.00 0.00 0.00 0.00 0.00 0.00 0.00 0.00 0.00 0.00 0.00 0.00 0.00 0.00 0.00 0.00 0.00 0.00 0.00 0.00 0.00 0.00 0.00 0.00 0.00 0.00 0.00 0.00 0.00 0.00 0.00 0.00 0.00 0.00 0.00 0.00 0.00 0.00 0.00 0.00 0.00 0.00 0.00 0.00 0.00 0.00 0.00 0.00 0.00 0.00 0.00 0.00 0.00 0.00 0.00 0.00 0.00 0.00 0.00 0.00 0.00 0.00 0.00 0.00 0.00 0.00 0.00 0.00 0.00 0.00 0.00 0.00 0.00 0.00 0.00 0.00 0.00 0.00 0.00 0.00 0.00 0.00 0.00 0.00 0.00 0.00 0.00 0.00 0.00 0.00 0.00 0.00 0.00 0.00 0.00 0.00 0.00 0.00 0.00 0.00 0.00 0.00 0.00 0.00 0.00 0.00 0.00 0.00 0.00 0.00 0.00 0.00 0.00 0.00 0.00 0.00 0.00 0.00 0.00 0.00 0.00 0.00 0.00 0.00 0.00 0.00 0.00 0.00 0.00 0.00 0.00 0.00 0.00 0.00 0.00 0.00 0.00 0.00 0.00 0.00 0.00 0.00
0.00 0.00 0.00 0.00 0.00 0.00 0.00 0.00 0.00 0.01 0.02 0.02 0.02 0.01 0.00 0.00 0.01 0.02 0.03 0.01 0.00 0.00 0.00 0.00 0.00 0.00 0.00 0.01 0.01 0.01 0.00 0.00 0.00 0.00 0.00 0.00 0.00 0.00 0.00 0.00 0.00 0.00 0.00 0.00 0.00 0.00 0.00 0.00 0.00 0.00 0.00 0.00 0.00 0.00 0.00 0.00 0.00 0.00 0.00 0.00 0.00 0.00 0.00 0.00 0.00 0.00 0.00 0.00 0.00 0.00 0.00 0.00 0.00 0.00 0.00 0.00 0.00 0.00 0.00 0.00 0.00 0.00 0.00 0.00 0.00 0.00 0.00 0.00 0.00 0.00 0.00 0.00 0.00 0.00 0.00 0.00 0.00 0.00 0.00 0.00 0.00 0.00 0.00 0.00 0.00 0.00 0.00 0.00 0.00 0.00 0.00 0.01 0.01 0.02 0.03 0.03 0.03 0.03 0.03 0.02 0.01 0.02 0.03 0.02 0.01 0.01 0.01 0.03 0.04 0.05 0.06 0.07 0.07 0.07 0.06 0.07 0.09 0.10 0.12 0.12 0.13 0.13 0.13 0.12 0.12 0.11 0.10 0.10 0.10 0.12 0.14 0.15 0.17 0.16 0.15 0.12 0.09 0.06 0.03 0.03 0.03
0.00 0.00 0.00 0.00 0.00 0.00 0.00 0.00 0.00 0.02 0.04 0.04 0.04 0.02 0.00 0.01 0.01 0.03 0.05 0.03 0.00 0.00 0.00 0.00 0.00 0.00 0.00 0.01 0.03 0.01 0.00 0.00 0.00 0.00 0.00 0.00 0.00 0.00 0.00 0.00 0.00 0.00 0.00 0.00 0.00 0.00 0.00 0.00 0.00 0.00 0.00 0.00 0.00 0.00 0.00 0.00 0.00 0.00 0.00 0.00 0.00 0.00 0.00 0.00 0.00 0.00 0.00 0.00 0.00 0.00 0.00 0.00 0.00 0.00 0.00 0.00 0.00 0.00 0.00 0.00 0.00 0.00 0.00 0.00 0.00 0.00 0.00 0.00 0.00 0.00 0.00 0.00 0.00 0.00 0.00 0.00 0.00 0.00 0.00 0.00 0.00 0.00 0.00 0.00 0.00 0.00 0.00 0.00 0.00 0.00 0.00 0.01 0.03 0.04 0.06 0.06 0.06 0.06 0.06 0.04 0.03 0.04 0.06 0.04 0.03 0.03 0.03 0.06 0.09 0.10 0.12 0.14 0.15 0.14 0.12 0.15 0.18 0.21 0.24 0.25 0.26 0.26 0.26 0.24 0.23 0.22 0.21 0.21 0.21 0.24 0.27 0.30 0.33 0.32 0.30 0.24 0.18 0.12 0.06 0.06 0.06
0.00 0.00 0.00 0.00 0.01 0.03 0.05 0.04 0.04 0.05 0.06 0.06 0.05 0.05 0.06 0.04 0.03 0.04 0.05 0.04 0.04 0.04 0.04 0.04 0.03 0.03 0.03 0.03 0.03 0.02 0.01 0.01 0.01 0.01 0.01 0.01 0.01 0.01 0.01 0.01 0.01 0.02 0.03 0.02 0.01 0.00 0.00 0.00 0.00 0.00 0.00 0.00 0.00 0.00 0.00 0.00 0.00 0.00 0.00 0.00 0.00 0.00 0.00 0.00 0.00 0.00 0.00 0.00 0.00 0.00 0.00 0.00 0.00 0.00 0.00 0.00 0.00 0.00 0.00 0.00 0.00 0.00 0.00 0.00 0.00 0.00 0.00 0.00 0.00 0.00 0.00 0.00 0.00 0.00 0.00 0.00 0.00 0.00 0.00 0.00 0.00 0.00 0.00 0.00 0.00 0.00 0.00 0.00 0.00 0.00 0.00 0.02 0.04 0.07 0.11 0.11 0.11 0.11 0.11 0.09 0.07 0.10 0.12 0.12 0.12 0.11 0.10 0.13 0.15 0.16 0.16 0.18 0.20 0.18 0.16 0.19 0.21 0.25 0.29 0.32 0.36 0.37 0.38 0.35 0.32 0.33 0.34 0.32 0.31 0.34 0.37 0.35 0.34 0.32 0.31 0.26 0.20 0.14 0.08 0.08 0.08
0.00 0.00 0.00 0.01 0.01 0.06 0.10 0.09 0.07 0.08 0.08 0.07 0.06 0.08 0.11 0.08 0.05 0.05 0.04 0.06 0.07 0.08 0.08 0.07 0.06 0.06 0.06 0.04 0.03 0.03 0.02 0.03 0.03 0.02 0.01 0.01 0.01 0.01 0.02 0.02 0.02 0.04 0.05 0.03 0.01 0.01 0.00 0.00 0.00 0.00 0.00 0.00 0.00 0.00 0.00 0.00 0.00 0.00 0.00 0.00 0.00 0.00 0.00 0.00 0.00 0.00 0.00 0.00 0.00 0.00 0.00 0.00 0.00 0.00 0.00 0.00 0.00 0.00 0.00 0.00 0.00 0.00 0.00 0.00 0.00 0.00 0.00 0.00 0.00 0.00 0.00 0.00 0.00 0.00 0.00 0.00 0.00 0.00 0.00 0.00 0.00 0.00 0.00 0.00 0.00 0.00 0.00 0.00 0.00 0.00 0.00 0.03 0.06 0.11 0.15 0.15 0.15 0.15 0.15 0.14 0.12 0.15 0.18 0.20 0.21 0.20 0.18 0.20 0.21 0.21 0.21 0.22 0.24 0.22 0.21 0.23 0.25 0.29 0.33 0.40 0.46 0.47 0.49 0.45 0.41 0.44 0.47 0.44 0.41 0.44 0.47 0.41 0.34 0.33 0.32 0.27 0.22 0.16 0.10 0.10 0.10
0.00 0.00 0.00 0.00 0.01 0.03 0.05 0.04 0.04 0.04 0.04 0.04 0.03 0.04 0.06 0.04 0.03 0.02 0.02 0.03 0.04 0.07 0.10 0.09 0.08 0.07 0.06 0.04 0.03 0.03 0.04 0.03 0.03 0.02 0.01 0.01 0.01 0.01 0.02 0.02 0.03 0.03 0.03 0.02 0.01 0.01 0.01 0.01 0.00 0.00 0.00 0.00 0.00 0.00 0.00 0.00 0.00 0.00 0.00 0.00 0.00 0.00 0.00 0.00 0.00 0.00 0.00 0.00 0.00 0.00 0.00 0.00 0.00 0.00 0.00 0.00 0.00 0.00 0.00 0.00 0.00 0.00 0.00 0.00 0.00 0.01 0.01 0.01 0.01 0.02 0.03 0.02 0.01 0.01 0.01 0.01 0.00 0.00 0.00 0.00 0.00 0.00 0.00 0.01 0.01 0.01 0.01 0.03 0.04 0.04 0.04 0.09 0.13 0.18 0.22 0.22 0.21 0.23 0.24 0.24 0.24 0.27 0.30 0.29 0.29 0.27 0.26 0.29 0.33 0.33 0.33 0.34 0.35 0.37 0.39 0.42 0.46 0.47 0.49 0.51 0.53 0.55 0.57 0.55 0.53 0.60 0.66 0.62 0.58 0.59 0.60 0.53 0.45 0.44 0.42 0.40 0.38 0.28 0.19 0.19 0.19
0.00 0.00 0.00 0.00 0.00 0.00 0.00 0.00 0.00 0.00 0.00 0.00 0.00 0.00 0.00 0.00 0.00 0.00 0.00 0.01 0.02 0.07 0.12 0.11 0.11 0.08 0.06 0.04 0.02 0.04 0.05 0.04 0.02 0.02 0.01 0.01 0.01 0.01 0.01 0.02 0.03 0.02 0.01 0.01 0.01 0.01 0.02 0.01 0.00 0.00 0.00 0.00 0.00 0.00 0.00 0.00 0.00 0.00 0.00 0.00 0.00 0.00 0.00 0.00 0.00 0.00 0.00 0.00 0.00 0.00 0.00 0.00 0.00 0.00 0.00 0.00 0.00 0.00 0.00 0.00 0.00 0.00 0.00 0.00 0.00 0.01 0.02 0.03 0.03 0.04 0.05 0.04 0.03 0.03 0.02 0.01 0.00 0.00 0.00 0.00 0.00 0.00 0.00 0.01 0.03 0.03 0.03 0.06 0.09 0.09 0.09 0.15 0.21 0.26 0.30 0.29 0.27 0.30 0.33 0.34 0.36 0.39 0.42 0.39 0.36 0.34 0.33 0.39 0.45 0.45 0.45 0.46 0.46 0.51 0.56 0.61 0.66 0.66 0.65 0.62 0.59 0.62 0.65 0.65 0.65 0.76 0.86 0.80 0.75 0.75 0.74 0.65 0.56 0.55 0.53 0.53 0.53 0.41 0.28 0.28 0.28
0.00 0.00 0.00 0.00 0.00 0.00 0.00 0.00 0.00 0.00 0.00 0.00 0.00 0.00 0.00 0.04 0.07 0.09 0.10 0.12 0.15 0.17 0.20 0.20 0.20 0.18 0.17 0.16 0.15 0.11 0.08 0.05 0.02 0.01 0.01 0.01 0.01 0.01 0.01 0.01 0.01 0.01 0.01 0.01 0.01 0.01 0.02 0.01 0.00 0.00 0.00 0.00 0.00 0.00 0.00 0.00 0.00 0.00 0.00 0.00 0.00 0.00 0.00 0.00 0.00 0.00 0.00 0.00 0.00 0.00 0.00 0.00 0.00 0.00 0.00 0.00 0.00 0.01 0.01 0.01 0.01 0.02 0.03 0.03 0.03 0.04 0.06 0.06 0.06 0.06 0.07 0.05 0.04 0.04 0.03 0.02 0.01 0.00 0.00 0.01 0.01 0.01 0.02 0.04 0.05 0.04 0.04 0.07 0.09 0.11 0.12 0.18 0.24 0.29 0.34 0.35 0.34 0.40 0.45 0.48 0.51 0.50 0.49 0.46 0.42 0.39 0.36 0.42 0.48 0.49 0.51 0.51 0.51 0.58 0.66 0.67 0.68 0.66 0.65 0.62 0.60 0.62 0.64 0.64 0.65 0.73 0.81 0.77 0.73 0.72 0.70 0.60 0.49 0.47 0.44 0.46 0.48 0.36 0.25 0.25 0.25
0.00 0.00 0.00 0.00 0.00 0.00 0.00 0.00 0.00 0.00 0.00 0.00 0.00 0.00 0.00 0.07 0.15 0.17 0.20 0.24 0.27 0.28 0.28 0.29 0.29 0.29 0.28 0.28 0.27 0.18 0.10 0.06 0.01 0.01 0.00 0.01 0.02 0.01 0.00 0.00 0.00 0.00 0.00 0.00 0.00 0.01 0.02 0.01 0.00 0.00 0.00 0.00 0.00 0.00 0.00 0.00 0.00 0.00 0.00 0.00 0.00 0.00 0.00 0.00 0.00 0.00 0.00 0.00 0.00 0.00 0.00 0.00 0.00 0.00 0.00 0.00 0.00 0.01 0.02 0.03 0.03 0.04 0.05 0.05 0.05 0.07 0.09 0.09 0.08 0.08 0.09 0.07 0.05 0.05 0.04 0.02 0.01 0.01 0.00 0.01 0.02 0.03 0.04 0.06 0.07 0.06 0.05 0.07 0.09 0.12 0.15 0.21 0.27 0.33 0.39 0.41 0.42 0.49 0.57 0.61 0.66 0.61 0.57 0.52 0.48 0.44 0.39 0.46 0.52 0.54 0.56 0.56 0.56 0.66 0.75 0.73 0.70 0.67 0.64 0.62 0.61 0.62 0.63 0.64 0.64 0.70 0.76 0.74 0.72 0.69 0.66 0.55 0.43 0.40 0.36 0.39 0.43 0.33 0.22 0.22 0.22
0.00 0.00 0.00 0.00 0.00 0.00 0.00 0.00 0.00 0.00 0.00 0.00 0.00 0.03 0.05 0.12 0.20 0.23 0.27 0.31 0.35 0.37 0.39 0.39 0.38 0.36 0.34 0.32 0.29 0.19 0.09 0.05 0.01 0.01 0.01 0.01 0.02 0.01 0.01 0.01 0.01 0.00 0.00 0.00 0.00 0.01 0.02 0.01 0.00 0.00 0.00 0.00 0.00 0.00 0.00 0.00 0.00 0.00 0.00 0.00 0.00 0.00 0.00 0.00 0.00 0.00 0.00 0.00 0.00 0.00 0.00 0.00 0.00 0.01 0.02 0.02 0.02 0.03 0.05 0.04 0.04 0.06 0.07 0.07 0.07 0.09 0.10 0.10 0.10 0.10 0.11 0.09 0.07 0.06 0.06 0.04 0.01 0.01 0.00 0.01 0.02 0.04 0.05 0.07 0.08 0.07 0.06 0.08 0.09 0.12 0.15 0.21 0.27 0.32 0.36 0.38 0.40 0.49 0.58 0.65 0.72 0.67 0.61 0.54 0.46 0.42 0.38 0.47 0.56 0.60 0.64 0.64 0.64 0.73 0.81 0.79 0.76 0.77 0.79 0.74 0.69 0.69 0.69 0.75 0.82 0.86 0.91 0.93 0.95 0.88 0.82 0.75 0.68 0.60 0.53 0.48 0.43 0.32 0.20 0.20 0.20
0.00 0.00 0.00 0.00 0.00 0.00 0.00 0.00 0.00 0.00 0.00 0.00 0.00 0.05 0.10 0.17 0.25 0.29 0.33 0.38 0.43 0.46 0.50 0.48 0.47 0.44 0.41 0.35 0.30 0.19 0.08 0.04 0.00 0.01 0.01 0.01 0.02 0.02 0.01 0.01 0.01 0.01 0.00 0.00 0.00 0.01 0.01 0.01 0.00 0.00 0.00 0.00 0.00 0.00 0.00 0.00 0.00 0.00 0.00 0.00 0.00 0.00 0.00 0.00 0.00 0.00 0.00 0.00 0.00 0.00 0.00 0.00 0.00 0.02 0.04 0.04 0.04 0.06 0.07 0.07 0.06 0.07 0.09 0.09 0.09 0.10 0.12 0.11 0.11 0.12 0.13 0.11 0.09 0.08 0.07 0.05 0.02 0.01 0.00 0.01 0.02 0.04 0.06 0.07 0.09 0.08 0.07 0.08 0.09 0.12 0.16 0.22 0.27 0.30 0.33 0.35 0.38 0.49 0.60 0.69 0.78 0.72 0.66 0.56 0.45 0.41 0.36 0.48 0.60 0.66 0.72 0.72 0.72 0.80 0.88 0.85 0.82 0.88 0.94 0.85 0.77 0.76 0.74 0.87 1.00 1.03 1.06 1.12 1.18 1.08 0.98 0.95 0.92 0.81 0.71 0.57 0.44 0.31 0.18 0.18 0.18
0.00 0.00 0.00 0.00 0.00 0.00 0.00 0.00 0.00 0.00 0.00 0.03 0.05 0.11 0.17 0.25 0.33 0.39 0.45 0.47 0.50 0.58 0.67 0.68 0.68 0.64 0.59 0.50 0.41 0.29 0.17 0.09 0.01 0.02 0.03 0.02 0.02 0.03 0.04 0.03 0.01 0.01 0.01 0.01 0.00 0.01 0.01 0.01 0.00 0.00 0.00 0.00 0.00 0.00 0.00 0.00 0.00 0.00 0.00 0.00 0.00 0.00 0.00 0.00 0.00 0.00 0.00 0.00 0.00 0.00 0.00 0.00 0.00 0.03 0.06 0.06 0.06 0.08 0.10 0.09 0.08 0.12 0.16 0.17 0.17 0.17 0.17 0.16 0.14 0.15 0.16 0.15 0.13 0.12 0.10 0.07 0.04 0.03 0.03 0.04 0.05 0.07 0.08 0.09 0.09 0.08 0.08 0.09 0.10 0.15 0.19 0.23 0.28 0.29 0.30 0.33 0.35 0.45 0.54 0.65 0.77 0.75 0.74 0.66 0.57 0.53 0.48 0.58 0.68 0.74 0.81 0.78 0.76 0.79 0.82 0.75 0.69 0.80 0.93 0.87 0.81 0.78 0.76 0.90 1.05 1.04 1.04 1.11 1.19 1.18 1.17 1.18 1.20 1.11 1.03 0.72 0.42 0.29 0.16 0.16 0.16
0.00 0.00 0.00 0.00 0.00 0.00 0.00 0.00 0.00 0.00 0.00 0.05 0.10 0.17 0.25 0.33 0.40 0.48 0.57 0.57 0.57 0.70 0.84 0.87 0.90 0.84 0.78 0.65 0.52 0.39 0.26 0.15 0.03 0.04 0.05 0.03 0.01 0.03 0.06 0.04 0.02 0.02 0.02 0.01 0.00 0.01 0.02 0.01 0.00 0.00 0.00 0.00 0.00 0.00 0.00 0.00 0.00 0.00 0.00 0.00 0.00 0.00 0.00 0.00 0.00 0.00 0.00 0.00 0.00 0.00 0.00 0.00 0.00 0.04 0.08 0.08 0.08 0.10 0.12 0.11 0.11 0.17 0.23 0.24 0.26 0.24 0.23 0.20 0.17 0.18 0.19 0.18 0.17 0.15 0.13 0.09 0.05 0.06 0.06 0.07 0.07 0.09 0.11 0.10 0.08 0.08 0.09 0.10 0.12 0.17 0.22 0.25 0.28 0.28 0.27 0.30 0.32 0.40 0.48 0.61 0.75 0.78 0.82 0.76 0.70 0.65 0.61 0.68 0.75 0.82 0.89 0.84 0.80 0.78 0.76 0.66 0.55 0.73 0.91 0.88 0.85 0.81 0.77 0.94 1.10 1.06 1.02 1.11 1.20 1.28 1.36 1.42 1.47 1.41 1.35 0.87 0.39 0.27 0.14 0.14 0.14
0.00 0.00 0.00 0.00 0.00 0.00 0.00 0.00 0.00 0.00 0.00 0.08 0.15 0.24 0.33 0.40 0.48 0.56 0.65 0.68 0.71 0.83 0.96 0.98 1.00 0.91 0.83 0.68 0.52 0.40 0.28 0.17 0.07 0.06 0.06 0.04 0.01 0.02 0.03 0.02 0.01 0.01 0.01 0.01 0.00 0.01 0.03 0.02 0.01 0.00 0.00 0.00 0.00 0.00 0.00 0.00 0.00 0.00 0.00 0.00 0.00 0.00 0.00 0.00 0.00 0.00 0.00 0.00 0.00 0.00 0.00 0.01 0.01 0.06 0.11 0.12 0.14 0.15 0.16 0.14 0.13 0.18 0.24 0.28 0.32 0.31 0.30 0.27 0.24 0.24 0.24 0.25 0.25 0.22 0.19 0.14 0.09 0.10 0.10 0.12 0.14 0.16 0.18 0.17 0.17 0.16 0.15 0.17 0.18 0.21 0.23 0.28 0.33 0.32 0.30 0.30 0.30 0.34 0.38 0.49 0.61 0.70 0.78 0.75 0.73 0.71 0.69 0.76 0.82 0.89 0.95 0.92 0.89 0.86 0.83 0.73 0.63 0.77 0.91 0.85 0.80 0.81 0.82 1.07 1.32 1.32 1.32 1.39 1.45 1.45 1.45 1.52 1.59 1.50 1.42 0.94 0.46 0.30 0.14 0.14 0.14
0.00 0.00 0.00 0.00 0.00 0.00 0.00 0.00 0.00 0.00 0.00 0.10 0.20 0.30 0.40 0.48 0.55 0.64 0.72 0.79 0.85 0.96 1.07 1.08 1.09 0.99 0.88 0.70 0.52 0.41 0.30 0.20 0.10 0.09 0.07 0.05 0.02 0.01 0.00 0.00 0.00 0.00 0.00 0.00 0.00 0.02 0.04 0.02 0.01 0.01 0.00 0.00 0.00 0.00 0.00 0.00 0.00 0.00 0.00 0.00 0.00 0.00 0.00 0.00 0.00 0.00 0.00 0.00 0.00 0.00 0.00 0.01 0.02 0.07 0.13 0.17 0.20 0.20 0.20 0.18 0.15 0.20 0.25 0.32 0.38 0.37 0.36 0.33 0.31 0.30 0.30 0.32 0.33 0.29 0.25 0.19 0.13 0.14 0.14 0.17 0.20 0.23 0.25 0.26 0.26 0.24 0.22 0.23 0.25 0.25 0.25 0.32 0.38 0.35 0.33 0.30 0.27 0.27 0.27 0.37 0.47 0.60 0.74 0.75 0.76 0.76 0.76 0.83 0.90 0.95 1.00 0.98 0.97 0.93 0.89 0.80 0.71 0.81 0.91 0.83 0.75 0.81 0.88 1.21 1.53 1.58 1.63 1.67 1.70 1.61 1.53 1.62 1.71 1.60 1.48 1.00 0.53 0.34 0.14 0.14 0.14
0.00 0.00 0.00 0.00 0.00 0.00 0.00 0.00 0.00 0.01 0.03 0.15 0.28 0.38 0.48 0.55 0.62 0.71 0.80 0.88 0.97 1.09 1.22 1.19 1.16 1.02 0.88 0.69 0.51 0.41 0.30 0.21 0.12 0.12 0.13 0.09 0.06 0.04 0.01 0.01 0.00 0.00 0.01 0.00 0.00 0.01 0.03 0.02 0.01 0.01 0.00 0.00 0.00 0.00 0.00 0.00 0.00 0.00 0.00 0.00 0.00 0.00 0.00 0.00 0.00 0.00 0.00 0.00 0.00 0.00 0.00 0.02 0.04 0.09 0.15 0.19 0.24 0.24 0.26 0.26 0.27 0.30 0.34 0.39 0.45 0.43 0.41 0.40 0.38 0.36 0.34 0.34 0.35 0.33 0.32 0.27 0.23 0.22 0.22 0.23 0.24 0.27 0.30 0.31 0.33 0.31 0.29 0.30 0.30 0.28 0.26 0.33 0.39 0.37 0.35 0.35 0.34 0.31 0.28 0.35 0.41 0.55 0.68 0.77 0.85 0.88 0.91 0.97 1.03 1.03 1.02 1.01 1.00 0.99 0.97 0.87 0.76 0.79 0.82 0.89 0.94 1.02 1.10 1.37 1.65 1.69 1.73 1.71 1.69 1.73 1.78 1.77 1.75 1.55 1.35 0.93 0.51 0.33 0.14 0.14 0.14
0.00 0.00 0.00 0.00 0.00 0.00 0.00 0.00 0.00 0.03 0.05 0.20 0.35 0.45 0.55 0.62 0.70 0.78 0.87 0.98 1.08 1.22 1.36 1.29 1.22 1.05 0.88 0.69 0.49 0.40 0.31 0.22 0.13 0.16 0.19 0.14 0.09 0.06 0.03 0.01 0.00 0.01 0.01 0.01 0.00 0.01 0.02 0.02 0.01 0.01 0.00 0.00 0.00 0.00 0.00 0.00 0.00 0.00 0.00 0.00 0.00 0.00 0.00 0.00 0.00 0.00 0.00 0.00 0.00 0.00 0.00 0.03 0.06 0.11 0.16 0.22 0.27 0.29 0.31 0.34 0.38 0.40 0.43 0.47 0.51 0.49 0.47 0.46 0.45 0.42 0.38 0.38 0.37 0.38 0.38 0.35 0.32 0.31 0.30 0.29 0.29 0.32 0.34 0.36 0.39 0.38 0.36 0.36 0.36 0.32 0.27 0.34 0.40 0.39 0.38 0.39 0.40 0.34 0.29 0.32 0.36 0.49 0.63 0.78 0.94 0.99 1.05 1.11 1.17 1.10 1.04 1.04 1.04 1.05 1.06 0.94 0.81 0.78 0.74 0.94 1.14 1.23 1.31 1.54 1.77 1.79 1.82 1.75 1.67 1.85 2.03 1.91 1.80 1.51 1.22 0.85 0.49 0.32 0.14 0.14 0.14
0.00 0.00 0.00 0.00 0.00 0.00 0.00 0.00 0.00 0.04 0.08 0.24 0.40 0.50 0.60 0.68 0.75 0.85 0.94 1.02 1.08 1.24 1.39 1.29 1.19 0.99 0.80 0.60 0.41 0.36 0.30 0.23 0.17 0.18 0.20 0.16 0.12 0.08 0.04 0.03 0.01 0.01 0.01 0.01 0.00 0.01 0.02 0.01 0.01 0.01 0.01 0.01 0.00 0.00 0.00 0.00 0.00 0.00 0.00 0.00 0.00 0.00 0.00 0.00 0.00 0.00 0.00 0.00 0.00 0.01 0.01 0.04 0.07 0.11 0.15 0.21 0.27 0.28 0.30 0.37 0.43 0.45 0.46 0.50 0.55 0.53 0.52 0.54 0.56 0.52 0.48 0.45 0.42 0.41 0.41 0.40 0.40 0.39 0.37 0.35 0.34 0.34 0.35 0.37 0.39 0.38 0.37 0.36 0.35 0.32 0.28 0.35 0.42 0.45 0.47 0.47 0.48 0.43 0.38 0.39 0.40 0.52 0.63 0.78 0.94 1.01 1.08 1.17 1.27 1.21 1.15 1.18 1.21 1.26 1.30 1.20 1.09 1.03 0.98 1.16 1.34 1.46 1.57 1.71 1.84 1.80 1.75 1.86 1.96 2.21 2.46 2.19 1.92 1.57 1.22 0.93 0.64 0.35 0.07 0.07 0.07
0.00 0.00 0.00 0.00 0.00 0.00 0.00 0.00 0.00 0.05 0.10 0.28 0.45 0.55 0.65 0.73 0.80 0.91 1.02 1.06 1.09 1.25 1.42 1.28 1.15 0.93 0.72 0.53 0.33 0.31 0.29 0.24 0.20 0.21 0.21 0.18 0.15 0.09 0.04 0.04 0.03 0.03 0.02 0.01 0.00 0.01 0.01 0.01 0.01 0.01 0.02 0.01 0.00 0.00 0.00 0.00 0.00 0.00 0.00 0.00 0.00 0.00 0.00 0.00 0.00 0.00 0.00 0.00 0.00 0.01 0.02 0.06 0.09 0.12 0.15 0.21 0.26 0.28 0.29 0.39 0.49 0.49 0.49 0.53 0.58 0.57 0.57 0.62 0.67 0.63 0.59 0.53 0.47 0.45 0.44 0.46 0.48 0.46 0.44 0.42 0.39 0.38 0.36 0.38 0.39 0.39 0.38 0.36 0.34 0.32 0.29 0.37 0.45 0.50 0.55 0.56 0.57 0.52 0.47 0.46 0.45 0.54 0.63 0.78 0.94 1.02 1.10 1.23 1.36 1.31 1.25 1.32 1.39 1.46 1.54 1.46 1.37 1.29 1.22 1.39 1.55 1.70 1.84 1.88 1.92 1.80 1.69 1.97 2.25 2.57 2.89 2.46 2.04 1.63 1.22 1.00 0.79 0.40 0.00 0.00 0.00
0.00 0.00 0.00 0.00 0.00 0.00 0.00 0.00 0.00 0.08 0.15 0.33 0.50 0.60 0.70 0.78 0.85 0.97 1.08 1.12 1.17 1.29 1.41 1.26 1.12 0.91 0.70 0.52 0.34 0.32 0.30 0.25 0.20 0.21 0.21 0.18 0.14 0.09 0.04 0.03 0.03 0.02 0.01 0.01 0.01 0.01 0.01 0.01 0.01 0.01 0.02 0.01 0.00 0.00 0.00 0.00 0.00 0.00 0.00 0.00 0.00 0.00 0.00 0.00 0.00 0.00 0.00 0.00 0.01 0.01 0.03 0.06 0.09 0.13 0.18 0.22 0.26 0.29 0.33 0.42 0.52 0.55 0.59 0.59 0.59 0.59 0.58 0.61 0.64 0.62 0.61 0.56 0.52 0.51 0.51 0.52 0.52 0.48 0.44 0.39 0.34 0.33 0.32 0.33 0.35 0.39 0.42 0.41 0.40 0.38 0.34 0.40 0.45 0.47 0.49 0.52 0.54 0.52 0.50 0.50 0.50 0.58 0.67 0.81 0.96 1.01 1.05 1.18 1.30 1.25 1.20 1.25 1.30 1.39 1.48 1.44 1.40 1.37 1.33 1.53 1.73 1.77 1.82 1.81 1.81 1.83 1.84 2.00 2.17 2.38 2.60 2.30 2.00 1.60 1.19 1.04 0.89 0.45 0.01 0.01 0.01
0.00 0.00 0.00 0.00 0.00 0.00 0.00 0.00 0.00 0.10 0.20 0.38 0.55 0.65 0.75 0.82 0.90 1.02 1.15 1.19 1.24 1.32 1.40 1.25 1.09 0.89 0.68 0.52 0.36 0.33 0.31 0.25 0.19 0.21 0.22 0.17 0.13 0.08 0.03 0.03 0.03 0.01 0.00 0.01 0.02 0.02 0.01 0.01 0.00 0.01 0.01 0.01 0.00 0.00 0.00 0.00 0.00 0.00 0.00 0.00 0.00 0.00 0.00 0.00 0.00 0.00 0.00 0.01 0.01 0.02 0.03 0.06 0.09 0.15 0.21 0.23 0.25 0.31 0.37 0.46 0.54 0.61 0.68 0.65 0.61 0.60 0.59 0.59 0.60 0.61 0.63 0.59 0.56 0.57 0.58 0.57 0.56 0.50 0.44 0.36 0.29 0.28 0.27 0.29 0.31 0.39 0.46 0.46 0.47 0.43 0.40 0.42 0.44 0.44 0.44 0.47 0.51 0.52 0.53 0.54 0.55 0.62 0.70 0.84 0.98 0.99 1.01 1.12 1.24 1.19 1.15 1.19 1.22 1.31 1.41 1.42 1.44 1.44 1.44 1.67 1.90 1.84 1.79 1.75 1.71 1.85 1.99 2.04 2.08 2.20 2.31 2.14 1.97 1.56 1.16 1.07 0.98 0.50 0.02 0.02 0.02
0.00 0.00 0.00 0.00 0.00 0.00 0.00 0.00 0.00 0.10 0.20 0.40 0.60 0.70 0.80 0.84 0.88 0.97 1.06 1.10 1.15 1.24 1.32 1.18 1.04 0.81 0.58 0.42 0.26 0.27 0.28 0.24 0.20 0.20 0.21 0.16 0.11 0.07 0.01 0.02 0.03 0.02 0.01 0.01 0.02 0.01 0.01 0.00 0.00 0.02 0.03 0.02 0.01 0.00 0.00 0.00 0.00 0.00 0.00 0.00 0.00 0.00 0.00 0.00 0.00 0.00 0.01 0.02 0.04 0.06 0.07 0.10 0.12 0.17 0.23 0.25 0.27 0.34 0.41 0.47 0.53 0.58 0.64 0.60 0.57 0.58 0.59 0.59 0.60 0.61 0.62 0.58 0.55 0.57 0.59 0.58 0.57 0.51 0.44 0.36 0.28 0.27 0.26 0.27 0.28 0.35 0.42 0.42 0.42 0.45 0.47 0.48 0.49 0.48 0.48 0.51 0.55 0.57 0.59 0.60 0.62 0.71 0.80 0.86 0.92 0.93 0.95 1.09 1.23 1.23 1.23 1.27 1.32 1.39 1.46 1.50 1.54 1.51 1.49 1.77 2.04 2.01 1.98 1.93 1.89 1.96 2.02 2.11 2.19 2.19 2.19 2.06 1.93 1.56 1.19 1.10 1.01 0.52 0.04 0.04 0.04
0.00 0.00 0.00 0.00 0.00 0.00 0.00 0.00 0.00 0.10 0.20 0.43 0.65 0.75 0.85 0.85 0.85 0.91 0.97 1.02 1.06 1.16 1.25 1.12 0.99 0.73 0.48 0.32 0.16 0.21 0.25 0.22 0.20 0.20 0.20 0.15 0.10 0.05 0.00 0.01 0.02 0.02 0.02 0.02 0.02 0.01 0.00 0.00 0.00 0.03 0.05 0.03 0.01 0.01 0.00 0.00 0.00 0.00 0.00 0.00 0.00 0.00 0.00 0.00 0.00 0.01 0.01 0.03 0.06 0.09 0.12 0.14 0.15 0.20 0.25 0.27 0.29 0.38 0.46 0.48 0.51 0.55 0.60 0.56 0.53 0.56 0.59 0.59 0.60 0.61 0.62 0.57 0.53 0.57 0.61 0.60 0.59 0.52 0.44 0.35 0.26 0.25 0.24 0.24 0.25 0.32 0.38 0.38 0.38 0.46 0.53 0.54 0.54 0.53 0.51 0.54 0.58 0.61 0.64 0.67 0.70 0.80 0.90 0.88 0.85 0.87 0.89 1.06 1.23 1.27 1.31 1.36 1.42 1.46 1.51 1.57 1.64 1.59 1.54 1.86 2.18 2.17 2.16 2.12 2.07 2.06 2.06 2.17 2.29 2.18 2.07 1.98 1.89 1.56 1.23 1.14 1.04 0.54 0.05 0.05 0.05
0.00 0.00 0.00 0.00 0.00 0.00 0.00 0.00 0.00 0.11 0.23 0.45 0.68 0.75 0.82 0.82 0.82 0.89 0.94 0.97 1.00 1.12 1.24 1.09 0.95 0.70 0.45 0.32 0.18 0.21 0.24 0.20 0.17 0.17 0.18 0.14 0.11 0.06 0.00 0.01 0.01 0.01 0.02 0.02 0.03 0.02 0.01 0.01 0.00 0.02 0.05 0.03 0.01 0.01 0.00 0.00 0.00 0.00 0.00 0.00 0.00 0.00 0.00 0.00 0.00 0.01 0.01 0.04 0.07 0.10 0.12 0.14 0.15 0.21 0.26 0.31 0.36 0.44 0.53 0.56 0.59 0.60 0.62 0.57 0.53 0.57 0.60 0.60 0.59 0.61 0.62 0.59 0.57 0.58 0.59 0.59 0.58 0.52 0.47 0.36 0.26 0.27 0.28 0.28 0.28 0.32 0.36 0.35 0.34 0.39 0.44 0.45 0.46 0.45 0.43 0.48 0.54 0.58 0.62 0.66 0.70 0.84 0.98 0.95 0.93 0.96 0.99 1.16 1.33 1.39 1.44 1.47 1.50 1.52 1.54 1.58 1.62 1.61 1.60 1.92 2.23 2.18 2.13 2.13 2.12 2.18 2.24 2.27 2.30 2.00 1.71 1.62 1.52 1.31 1.08 0.93 0.77 0.41 0.06 0.06 0.06
0.00 0.00 0.00 0.00 0.00 0.00 0.00 0.00 0.00 0.12 0.25 0.47 0.70 0.75 0.80 0.80 0.80 0.86 0.92 0.93 0.94 1.08 1.23 1.07 0.91 0.67 0.42 0.32 0.21 0.22 0.23 0.18 0.13 0.14 0.15 0.14 0.12 0.06 0.00 0.00 0.00 0.01 0.02 0.03 0.03 0.03 0.02 0.01 0.00 0.02 0.04 0.02 0.01 0.01 0.00 0.00 0.00 0.00 0.00 0.00 0.00 0.00 0.00 0.00 0.00 0.01 0.02 0.06 0.09 0.11 0.13 0.14 0.15 0.21 0.27 0.35 0.43 0.51 0.59 0.63 0.67 0.66 0.64 0.58 0.53 0.57 0.61 0.60 0.59 0.61 0.63 0.61 0.60 0.59 0.58 0.58 0.58 0.53 0.49 0.38 0.26 0.29 0.31 0.30 0.30 0.32 0.33 0.31 0.29 0.32 0.36 0.37 0.38 0.36 0.35 0.42 0.50 0.55 0.60 0.65 0.70 0.88 1.05 1.02 1.00 1.04 1.08 1.25 1.43 1.50 1.57 1.58 1.59 1.58 1.56 1.58 1.60 1.64 1.67 1.97 2.27 2.19 2.10 2.14 2.18 2.29 2.41 2.36 2.31 1.83 1.35 1.25 1.16 1.05 0.94 0.72 0.50 0.28 0.06 0.06 0.06
0.00 0.00 0.00 0.00 0.00 0.00 0.00 0.00 0.00 0.16 0.33 0.53 0.72 0.76 0.80 0.80 0.80 0.86 0.93 0.96 0.99 1.12 1.26 1.05 0.84 0.63 0.41 0.33 0.24 0.28 0.31 0.26 0.20 0.20 0.19 0.16 0.13 0.09 0.05 0.05 0.05 0.03 0.01 0.02 0.03 0.02 0.02 0.01 0.01 0.01 0.02 0.01 0.01 0.00 0.00 0.00 0.00 0.00 0.00 0.00 0.00 0.00 0.00 0.00 0.00 0.02 0.04 0.07 0.11 0.13 0.15 0.15 0.15 0.22 0.28 0.38 0.48 0.56 0.62 0.65 0.68 0.66 0.64 0.61 0.59 0.63 0.68 0.67 0.66 0.64 0.63 0.61 0.58 0.57 0.55 0.54 0.53 0.50 0.46 0.36 0.26 0.27 0.28 0.26 0.24 0.24 0.24 0.21 0.18 0.23 0.28 0.32 0.36 0.37 0.38 0.45 0.53 0.56 0.60 0.61 0.62 0.77 0.93 0.95 0.97 1.04 1.11 1.32 1.53 1.58 1.65 1.66 1.67 1.61 1.55 1.58 1.61 1.70 1.79 2.06 2.33 2.33 2.32 2.31 2.31 2.32 2.33 2.20 2.08 1.73 1.39 1.32 1.26 1.13 1.01 0.89 0.78 0.42 0.05 0.05 0.05
0.00 0.00 0.00 0.00 0.00 0.00 0.00 0.00 0.00 0.20 0.40 0.57 0.75 0.77 0.80 0.80 0.80 0.87 0.93 0.98 1.03 1.16 1.28 1.03 0.78 0.58 0.39 0.34 0.28 0.34 0.39 0.33 0.27 0.25 0.23 0.18 0.14 0.12 0.10 0.10 0.10 0.05 0.00 0.01 0.03 0.02 0.01 0.01 0.01 0.01 0.00 0.00 0.00 0.00 0.00 0.00 0.00 0.00 0.00 0.00 0.00 0.00 0.00 0.00 0.00 0.03 0.05 0.09 0.13 0.15 0.17 0.17 0.16 0.22 0.29 0.42 0.54 0.60 0.66 0.67 0.68 0.66 0.64 0.65 0.65 0.70 0.74 0.73 0.72 0.68 0.63 0.60 0.57 0.55 0.53 0.51 0.49 0.46 0.44 0.34 0.25 0.24 0.24 0.21 0.18 0.17 0.15 0.12 0.08 0.14 0.21 0.28 0.35 0.38 0.40 0.48 0.55 0.57 0.60 0.57 0.55 0.68 0.80 0.87 0.94 1.04 1.15 1.39 1.62 1.67 1.72 1.73 1.74 1.64 1.53 1.57 1.61 1.77 1.92 2.16 2.40 2.47 2.54 2.49 2.44 2.34 2.24 2.04 1.85 1.64 1.43 1.40 1.36 1.22 1.07 1.06 1.06 0.55 0.05 0.05 0.05
0.00 0.00 0.00 0.00 0.00 0.00 0.00 0.04 0.07 0.31 0.55 0.71 0.88 0.89 0.90 0.90 0.90 0.96 1.03 1.09 1.16 1.34 1.52 1.24 0.96 0.77 0.58 0.51 0.44 0.48 0.52 0.47 0.41 0.38 0.35 0.28 0.22 0.20 0.18 0.15 0.12 0.08 0.03 0.02 0.01 0.01 0.01 0.01 0.01 0.00 0.00 0.00 0.00 0.00 0.00 0.00 0.00 0.00 0.00 0.00 0.00 0.00 0.00 0.00 0.00 0.03 0.05 0.08 0.12 0.13 0.14 0.13 0.12 0.20 0.28 0.41 0.53 0.58 0.63 0.64 0.64 0.65 0.67 0.68 0.70 0.72 0.76 0.73 0.70 0.67 0.63 0.60 0.57 0.54 0.51 0.48 0.45 0.42 0.40 0.31 0.23 0.22 0.21 0.17 0.13 0.13 0.14 0.13 0.12 0.19 0.26 0.33 0.40 0.42 0.45 0.53 0.60 0.61 0.62 0.59 0.55 0.65 0.75 0.82 0.89 1.02 1.14 1.35 1.56 1.72 1.89 1.86 1.83 1.75 1.68 1.76 1.83 2.04 2.26 2.42 2.58 2.68 2.79 2.70 2.60 2.50 2.39 2.02 1.66 1.48 1.30 1.26 1.21 1.12 1.04 1.04 1.04 0.54 0.04 0.04 0.04
0.00 0.00 0.00 0.00 0.00 0.00 0.00 0.07 0.15 0.42 0.70 0.85 1.00 1.00 1.00 1.00 1.00 1.06 1.13 1.21 1.29 1.52 1.76 1.46 1.15 0.97 0.78 0.69 0.60 0.62 0.65 0.60 0.55 0.52 0.48 0.39 0.29 0.28 0.26 0.21 0.15 0.10 0.06 0.03 0.00 0.01 0.02 0.01 0.00 0.00 0.00 0.00 0.00 0.00 0.00 0.00 0.00 0.00 0.00 0.00 0.00 0.00 0.00 0.00 0.00 0.03 0.05 0.08 0.11 0.11 0.11 0.10 0.08 0.18 0.27 0.40 0.52 0.56 0.60 0.60 0.60 0.65 0.69 0.72 0.74 0.76 0.77 0.73 0.68 0.66 0.63 0.60 0.58 0.53 0.48 0.44 0.41 0.38 0.35 0.28 0.21 0.20 0.18 0.14 0.09 0.10 0.12 0.14 0.16 0.23 0.30 0.38 0.45 0.47 0.50 0.57 0.65 0.65 0.65 0.60 0.55 0.62 0.70 0.77 0.84 0.99 1.14 1.31 1.49 1.77 2.05 1.98 1.92 1.88 1.83 1.94 2.05 2.33 2.60 2.67 2.75 2.90 3.05 2.90 2.76 2.65 2.54 2.00 1.46 1.32 1.18 1.12 1.06 1.04 1.01 1.02 1.02 0.53 0.03 0.03 0.03
0.00 0.00 0.00 0.00 0.00 0.00 0.00 0.10 0.20 0.48 0.75 0.88 1.00 1.00 1.00 1.00 1.00 1.06 1.13 1.24 1.35 1.59 1.82 1.53 1.23 1.09 0.96 0.87 0.77 0.77 0.77 0.73 0.68 0.64 0.60 0.51 0.41 0.38 0.35 0.27 0.19 0.14 0.08 0.04 0.01 0.01 0.02 0.01 0.01 0.00 0.00 0.00 0.00 0.00 0.00 0.00 0.00 0.00 0.00 0.00 0.00 0.00 0.00 0.00 0.00 0.03 0.05 0.08 0.11 0.12 0.13 0.12 0.11 0.20 0.30 0.39 0.49 0.53 0.57 0.58 0.58 0.65 0.70 0.73 0.76 0.76 0.76 0.70 0.65 0.62 0.60 0.54 0.49 0.43 0.37 0.32 0.28 0.26 0.24 0.18 0.13 0.12 0.11 0.08 0.06 0.09 0.12 0.17 0.22 0.29 0.38 0.47 0.56 0.60 0.65 0.69 0.73 0.71 0.69 0.62 0.55 0.62 0.70 0.77 0.84 1.00 1.16 1.33 1.50 1.81 2.13 2.10 2.06 2.02 1.98 2.13 2.28 2.47 2.66 2.79 2.92 3.17 3.42 3.21 3.00 2.80 2.60 2.08 1.56 1.43 1.29 1.19 1.07 1.05 1.02 1.02 1.02 0.53 0.03 0.03 0.03
0.00 0.00 0.00 0.00 0.00 0.00 0.00 0.12 0.25 0.53 0.80 0.90 1.00 1.00 1.00 1.00 1.00 1.06 1.13 1.27 1.41 1.65 1.89 1.60 1.31 1.23 1.14 1.04 0.95 0.92 0.89 0.85 0.81 0.77 0.73 0.63 0.53 0.49 0.45 0.34 0.23 0.17 0.11 0.06 0.01 0.01 0.01 0.01 0.01 0.01 0.00 0.00 0.00 0.00 0.00 0.00 0.00 0.00 0.00 0.00 0.00 0.00 0.00 0.00 0.00 0.03 0.05 0.08 0.11 0.13 0.15 0.14 0.13 0.23 0.32 0.39 0.46 0.50 0.54 0.55 0.57 0.65 0.72 0.75 0.78 0.76 0.74 0.68 0.62 0.59 0.57 0.48 0.40 0.33 0.26 0.21 0.15 0.14 0.13 0.09 0.05 0.05 0.04 0.04 0.03 0.07 0.12 0.20 0.27 0.36 0.45 0.56 0.67 0.74 0.80 0.81 0.81 0.77 0.73 0.64 0.55 0.62 0.70 0.77 0.84 1.01 1.18 1.34 1.51 1.86 2.21 2.21 2.21 2.17 2.13 2.33 2.52 2.62 2.71 2.90 3.09 3.44 3.79 3.52 3.24 2.95 2.65 2.15 1.66 1.53 1.41 1.25 1.09 1.06 1.03 1.02 1.02 0.53 0.03 0.03 0.03
0.00 0.00 0.00 0.00 0.00 0.03 0.05 0.17 0.30 0.56 0.83 0.91 1.00 1.00 1.00 1.00 1.00 1.08 1.15 1.34 1.52 1.72 1.92 1.71 1.50 1.43 1.35 1.23 1.11 1.05 0.99 0.97 0.95 0.88 0.81 0.73 0.64 0.58 0.52 0.41 0.30 0.23 0.16 0.11 0.07 0.03 0.01 0.01 0.01 0.01 0.01 0.01 0.01 0.00 0.00 0.00 0.00 0.00 0.00 0.00 0.00 0.00 0.00 0.00 0.00 0.02 0.04 0.07 0.11 0.13 0.15 0.15 0.15 0.24 0.33 0.38 0.43 0.44 0.46 0.48 0.51 0.59 0.67 0.69 0.70 0.69 0.67 0.60 0.54 0.53 0.52 0.46 0.41 0.33 0.26 0.22 0.18 0.18 0.17 0.12 0.08 0.08 0.09 0.09 0.09 0.13 0.17 0.25 0.34 0.44 0.54 0.64 0.74 0.79 0.85 0.83 0.81 0.78 0.76 0.75 0.75 0.83 0.90 0.97 1.04 1.22 1.40 1.53 1.66 2.05 2.44 2.46 2.48 2.33 2.19 2.36 2.53 2.53 2.53 2.94 3.34 3.70 4.07 3.76 3.45 2.98 2.50 2.08 1.66 1.55 1.45 1.29 1.14 1.10 1.07 1.06 1.05 0.54 0.03 0.03 0.03
0.00 0.00 0.00 0.00 0.00 0.05 0.10 0.22 0.35 0.60 0.85 0.93 1.00 1.00 1.00 1.00 1.00 1.09 1.18 1.41 1.64 1.79 1.94 1.81 1.69 1.62 1.56 1.42 1.27 1.19 1.10 1.09 1.08 0.99 0.90 0.82 0.75 0.67 0.59 0.48 0.37 0.29 0.21 0.16 0.12 0.06 0.00 0.00 0.00 0.01 0.02 0.02 0.01 0.01 0.00 0.00 0.00 0.00 0.00 0.00 0.00 0.00 0.00 0.00 0.00 0.01 0.03 0.07 0.10 0.12 0.15 0.16 0.17 0.26 0.35 0.37 0.39 0.39 0.38 0.41 0.45 0.54 0.62 0.62 0.63 0.61 0.60 0.53 0.46 0.46 0.46 0.44 0.42 0.33 0.25 0.23 0.22 0.21 0.21 0.15 0.10 0.12 0.14 0.14 0.14 0.18 0.22 0.31 0.40 0.52 0.63 0.72 0.80 0.85 0.89 0.85 0.81 0.80 0.78 0.86 0.95 1.02 1.10 1.17 1.23 1.42 1.61 1.71 1.81 2.24 2.67 2.71 2.74 2.50 2.26 2.40 2.54 2.45 2.36 2.97 3.59 3.97 4.35 4.00 3.66 3.01 2.36 2.01 1.66 1.57 1.49 1.34 1.19 1.15 1.11 1.10 1.08 0.56 0.03 0.03 0.03
0.00 0.00 0.00 0.00 0.00 0.08 0.15 0.27 0.40 0.62 0.85 0.93 1.00 1.00 1.00 1.01 1.02 1.16 1.30 1.53 1.76 1.85 1.94 1.84 1.74 1.70 1.67 1.56 1.45 1.34 1.23 1.17 1.11 1.03 0.95 0.89 0.82 0.74 0.67 0.55 0.43 0.34 0.26 0.20 0.15 0.08 0.01 0.01 0.01 0.01 0.02 0.01 0.01 0.00 0.00 0.00 0.00 0.00 0.00 0.00 0.00 0.00 0.00 0.00 0.00 0.01 0.03 0.06 0.10 0.12 0.15 0.16 0.17 0.24 0.32 0.32 0.33 0.33 0.33 0.39 0.44 0.49 0.55 0.54 0.53 0.51 0.48 0.46 0.43 0.44 0.46 0.43 0.41 0.33 0.24 0.23 0.21 0.21 0.21 0.15 0.10 0.12 0.14 0.14 0.15 0.18 0.22 0.31 0.40 0.54 0.67 0.74 0.81 0.85 0.90 0.84 0.78 0.76 0.73 0.82 0.90 0.97 1.03 1.12 1.20 1.43 1.66 1.76 1.86 2.19 2.52 2.61 2.70 2.49 2.29 2.39 2.50 2.44 2.38 2.84 3.30 3.73 4.15 3.86 3.58 2.98 2.38 2.16 1.93 1.81 1.68 1.46 1.24 1.19 1.14 1.13 1.12 0.58 0.04 0.04 0.04
0.00 0.00 0.00 0.00 0.00 0.10 0.20 0.33 0.45 0.65 0.85 0.93 1.00 1.00 1.00 1.02 1.05 1.24 1.43 1.66 1.89 1.92 1.94 1.86 1.78 1.77 1.77 1.70 1.64 1.50 1.36 1.25 1.15 1.07 1.00 0.95 0.90 0.82 0.74 0.61 0.49 0.40 0.31 0.24 0.18 0.11 0.03 0.03 0.02 0.02 0.02 0.01 0.00 0.00 0.00 0.00 0.00 0.00 0.00 0.00 0.00 0.00 0.00 0.00 0.00 0.01 0.03 0.06 0.09 0.12 0.15 0.16 0.17 0.23 0.28 0.28 0.27 0.28 0.28 0.35 0.43 0.45 0.48 0.45 0.43 0.40 0.37 0.39 0.40 0.42 0.45 0.43 0.41 0.32 0.24 0.22 0.20 0.21 0.21 0.15 0.10 0.12 0.14 0.15 0.15 0.18 0.22 0.31 0.40 0.55 0.71 0.76 0.82 0.86 0.91 0.83 0.75 0.72 0.68 0.77 0.85 0.91 0.97 1.07 1.18 1.44 1.71 1.81 1.91 2.14 2.37 2.51 2.65 2.48 2.31 2.38 2.46 2.43 2.40 2.71 3.02 3.49 3.95 3.72 3.49 2.95 2.40 2.30 2.21 2.04 1.87 1.58 1.29 1.23 1.16 1.16 1.16 0.60 0.05 0.05 0.05
0.00 0.00 0.00 0.00 0.00 0.11 0.23 0.35 0.47 0.68 0.88 0.93 0.98 0.98 0.98 1.01 1.05 1.30 1.54 1.77 2.00 2.06 2.12 2.02 1.92 1.93 1.94 1.86 1.78 1.69 1.60 1.42 1.25 1.13 1.02 0.97 0.94 0.84 0.74 0.64 0.54 0.45 0.36 0.28 0.19 0.11 0.03 0.02 0.02 0.01 0.01 0.01 0.00 0.00 0.00 0.00 0.00 0.00 0.00 0.00 0.00 0.00 0.00 0.00 0.00 0.01 0.03 0.05 0.08 0.10 0.13 0.14 0.16 0.21 0.26 0.24 0.23 0.26 0.28 0.35 0.42 0.45 0.47 0.43 0.40 0.40 0.39 0.42 0.46 0.47 0.48 0.45 0.41 0.32 0.22 0.21 0.20 0.20 0.20 0.15 0.10 0.12 0.15 0.15 0.15 0.18 0.21 0.31 0.41 0.53 0.65 0.71 0.76 0.78 0.80 0.72 0.64 0.60 0.57 0.68 0.79 0.86 0.93 1.06 1.19 1.46 1.73 1.81 1.89 2.08 2.28 2.49 2.69 2.58 2.46 2.40 2.34 2.37 2.40 2.56 2.71 2.99 3.27 3.36 3.44 2.90 2.35 2.29 2.23 2.09 1.96 1.60 1.25 1.20 1.15 1.16 1.16 0.60 0.05 0.05 0.05
0.00 0.00 0.00 0.00 0.00 0.12 0.25 0.38 0.50 0.70 0.90 0.93 0.95 0.95 0.95 1.00 1.05 1.35 1.66 1.89 2.12 2.21 2.31 2.19 2.07 2.09 2.11 2.02 1.93 1.89 1.84 1.60 1.35 1.19 1.03 1.00 0.97 0.85 0.74 0.66 0.58 0.50 0.42 0.31 0.20 0.11 0.02 0.02 0.01 0.01 0.00 0.00 0.00 0.00 0.00 0.00 0.00 0.00 0.00 0.00 0.00 0.00 0.00 0.00 0.00 0.01 0.02 0.05 0.07 0.09 0.11 0.13 0.15 0.19 0.23 0.22 0.20 0.24 0.27 0.34 0.42 0.44 0.46 0.42 0.37 0.40 0.42 0.46 0.51 0.51 0.51 0.46 0.42 0.32 0.21 0.20 0.19 0.19 0.19 0.15 0.11 0.13 0.15 0.15 0.14 0.17 0.20 0.31 0.42 0.51 0.59 0.65 0.71 0.70 0.68 0.60 0.52 0.48 0.45 0.59 0.74 0.82 0.90 1.05 1.20 1.47 1.74 1.80 1.86 2.02 2.19 2.46 2.74 2.67 2.61 2.42 2.22 2.31 2.40 2.40 2.40 2.50 2.60 3.00 3.39 2.84 2.30 2.27 2.25 2.15 2.04 1.63 1.22 1.18 1.14 1.15 1.16 0.60 0.05 0.05 0.05
0.00 0.00 0.00 0.00 0.00 0.14 0.28 0.40 0.53 0.71 0.90 0.93 0.95 0.95 0.95 1.00 1.05 1.39 1.72 1.94 2.15 2.29 2.43 2.30 2.17 2.17 2.17 2.13 2.08 2.04 2.00 1.74 1.47 1.29 1.11 1.08 1.04 0.92 0.79 0.71 0.64 0.55 0.47 0.34 0.21 0.12 0.03 0.02 0.01 0.01 0.00 0.00 0.00 0.00 0.00 0.00 0.00 0.00 0.00 0.00 0.00 0.00 0.00 0.00 0.00 0.01 0.02 0.03 0.05 0.07 0.09 0.10 0.12 0.14 0.17 0.15 0.14 0.21 0.28 0.33 0.38 0.40 0.43 0.39 0.36 0.38 0.41 0.44 0.47 0.45 0.42 0.38 0.33 0.26 0.20 0.18 0.16 0.15 0.14 0.11 0.08 0.08 0.09 0.08 0.08 0.11 0.15 0.28 0.42 0.51 0.59 0.67 0.75 0.75 0.74 0.67 0.60 0.55 0.51 0.64 0.76 0.88 0.99 1.13 1.27 1.52 1.77 1.78 1.78 1.96 2.15 2.46 2.79 2.72 2.66 2.52 2.38 2.44 2.50 2.49 2.48 2.68 2.88 3.04 3.21 2.81 2.41 2.39 2.37 2.22 2.08 1.55 1.02 1.00 0.98 1.00 1.02 0.54 0.07 0.07 0.07
0.00 0.00 0.00 0.00 0.00 0.15 0.30 0.43 0.55 0.72 0.90 0.93 0.95 0.95 0.95 1.00 1.05 1.42 1.78 1.98 2.18 2.37 2.55 2.42 2.28 2.26 2.24 2.24 2.24 2.20 2.16 1.88 1.59 1.40 1.20 1.16 1.12 0.98 0.84 0.77 0.70 0.61 0.52 0.38 0.23 0.13 0.03 0.02 0.01 0.01 0.00 0.00 0.00 0.00 0.00 0.00 0.00 0.00 0.00 0.00 0.00 0.00 0.00 0.00 0.00 0.01 0.01 0.02 0.03 0.04 0.06 0.07 0.09 0.10 0.10 0.09 0.08 0.18 0.28 0.31 0.33 0.36 0.40 0.37 0.34 0.37 0.40 0.42 0.44 0.39 0.33 0.29 0.24 0.21 0.18 0.15 0.13 0.11 0.10 0.07 0.05 0.04 0.03 0.02 0.01 0.06 0.10 0.26 0.42 0.51 0.59 0.69 0.79 0.79 0.80 0.74 0.68 0.62 0.57 0.68 0.78 0.93 1.08 1.21 1.34 1.57 1.80 1.75 1.70 1.90 2.10 2.46 2.83 2.77 2.71 2.62 2.53 2.56 2.60 2.58 2.56 2.85 3.15 3.09 3.03 2.77 2.52 2.50 2.48 2.30 2.13 1.48 0.83 0.82 0.82 0.85 0.88 0.48 0.08 0.08 0.08
0.00 0.00 0.00 0.00 0.00 0.16 0.32 0.46 0.60 0.74 0.88 0.90 0.92 0.92 0.92 0.96 1.00 1.38 1.75 1.96 2.17 2.40 2.63 2.58 2.54 2.52 2.50 2.44 2.38 2.34 2.31 2.02 1.73 1.52 1.31 1.24 1.17 0.99 0.83 0.77 0.71 0.64 0.56 0.42 0.29 0.17 0.06 0.04 0.03 0.01 0.00 0.00 0.00 0.00 0.00 0.00 0.00 0.00 0.00 0.00 0.00 0.00 0.00 0.00 0.00 0.00 0.01 0.01 0.02 0.03 0.04 0.07 0.09 0.10 0.10 0.10 0.10 0.18 0.27 0.29 0.32 0.35 0.38 0.36 0.34 0.38 0.41 0.42 0.42 0.36 0.31 0.26 0.21 0.17 0.14 0.13 0.11 0.09 0.07 0.06 0.05 0.03 0.02 0.01 0.01 0.04 0.07 0.24 0.40 0.49 0.58 0.69 0.79 0.79 0.80 0.72 0.66 0.61 0.56 0.69 0.82 0.96 1.10 1.22 1.35 1.53 1.72 1.71 1.69 1.89 2.08 2.48 2.88 2.84 2.80 2.71 2.61 2.66 2.71 2.71 2.71 2.95 3.20 2.98 2.76 2.67 2.58 2.52 2.46 2.33 2.19 1.63 1.07 0.93 0.78 0.81 0.83 0.46 0.08 0.08 0.08
0.00 0.00 0.00 0.00 0.00 0.17 0.35 0.50 0.65 0.75 0.85 0.88 0.90 0.90 0.90 0.93 0.95 1.33 1.72 1.94 2.15 2.43 2.71 2.75 2.80 2.78 2.76 2.63 2.51 2.48 2.45 2.16 1.86 1.65 1.43 1.32 1.21 1.01 0.81 0.76 0.72 0.66 0.60 0.47 0.34 0.21 0.08 0.06 0.04 0.02 0.00 0.00 0.00 0.00 0.00 0.00 0.00 0.00 0.00 0.00 0.00 0.00 0.00 0.00 0.00 0.00 0.00 0.01 0.01 0.02 0.03 0.06 0.08 0.10 0.11 0.11 0.11 0.18 0.26 0.28 0.30 0.33 0.36 0.35 0.34 0.38 0.42 0.41 0.41 0.34 0.28 0.23 0.17 0.14 0.11 0.10 0.09 0.07 0.05 0.05 0.04 0.02 0.01 0.01 0.00 0.03 0.05 0.21 0.37 0.47 0.58 0.68 0.78 0.79 0.79 0.71 0.63 0.59 0.56 0.71 0.86 0.99 1.12 1.24 1.35 1.49 1.64 1.67 1.69 1.88 2.06 2.49 2.92 2.91 2.89 2.79 2.69 2.75 2.82 2.83 2.85 3.05 3.25 2.87 2.49 2.57 2.65 2.54 2.44 2.35 2.26 1.79 1.31 1.02 0.74 0.77 0.79 0.43 0.07 0.07 0.07
0.00 0.00 0.00 0.00 0.00 0.17 0.35 0.48 0.60 0.67 0.75 0.76 0.78 0.78 0.78 0.79 0.80 1.30 1.80 1.99 2.19 2.42 2.65 2.74 2.84 2.82 2.79 2.70 2.60 2.49 2.38 2.11 1.84 1.67 1.50 1.38 1.25 1.06 0.88 0.84 0.80 0.75 0.70 0.56 0.42 0.29 0.15 0.09 0.04 0.03 0.01 0.01 0.02 0.01 0.00 0.00 0.00 0.00 0.00 0.00 0.00 0.00 0.00 0.00 0.00 0.00 0.00 0.00 0.01 0.01 0.02 0.04 0.07 0.09 0.11 0.11 0.11 0.18 0.24 0.26 0.27 0.30 0.33 0.33 0.33 0.34 0.35 0.34 0.33 0.27 0.21 0.18 0.15 0.12 0.10 0.09 0.07 0.06 0.05 0.04 0.03 0.02 0.01 0.00 0.00 0.01 0.03 0.16 0.30 0.40 0.49 0.60 0.71 0.72 0.74 0.67 0.60 0.55 0.51 0.67 0.84 1.02 1.21 1.32 1.44 1.57 1.70 1.71 1.71 1.89 2.07 2.50 2.94 2.93 2.92 2.85 2.78 2.83 2.89 2.93 2.97 3.09 3.22 2.93 2.64 2.68 2.72 2.61 2.50 2.40 2.30 1.89 1.49 1.11 0.74 0.77 0.79 0.43 0.07 0.07 0.07
0.00 0.00 0.00 0.00 0.00 0.17 0.35 0.45 0.55 0.60 0.65 0.65 0.65 0.65 0.65 0.65 0.65 1.26 1.88 2.05 2.22 2.40 2.58 2.73 2.88 2.85 2.83 2.76 2.70 2.50 2.31 2.06 1.82 1.70 1.58 1.44 1.29 1.11 0.94 0.91 0.88 0.84 0.80 0.65 0.50 0.36 0.22 0.13 0.04 0.03 0.02 0.03 0.04 0.02 0.00 0.00 0.00 0.00 0.00 0.00 0.00 0.00 0.00 0.00 0.00 0.00 0.00 0.00 0.00 0.01 0.01 0.03 0.05 0.08 0.11 0.11 0.12 0.17 0.22 0.23 0.24 0.27 0.30 0.31 0.32 0.30 0.28 0.27 0.25 0.20 0.14 0.13 0.12 0.10 0.09 0.07 0.06 0.05 0.04 0.03 0.02 0.01 0.00 0.00 0.00 0.00 0.00 0.12 0.23 0.32 0.40 0.52 0.64 0.67 0.69 0.63 0.57 0.52 0.46 0.64 0.81 1.05 1.29 1.40 1.52 1.64 1.76 1.75 1.73 1.91 2.08 2.52 2.96 2.96 2.96 2.92 2.87 2.92 2.96 3.02 3.08 3.13 3.19 2.99 2.79 2.79 2.79 2.67 2.55 2.44 2.34 2.00 1.66 1.21 0.75 0.77 0.78 0.42 0.06 0.06 0.06
0.00 0.00 0.00 0.00 0.00 0.17 0.35 0.44 0.53 0.60 0.68 0.69 0.70 0.70 0.70 0.70 0.70 1.34 1.99 2.12 2.25 2.45 2.65 2.85 3.04 2.99 2.93 2.85 2.76 2.54 2.33 2.06 1.80 1.69 1.58 1.49 1.40 1.23 1.06 1.02 0.97 0.91 0.85 0.72 0.60 0.44 0.29 0.21 0.14 0.12 0.10 0.07 0.04 0.02 0.00 0.00 0.00 0.00 0.00 0.00 0.00 0.00 0.00 0.00 0.00 0.00 0.00 0.00 0.00 0.01 0.01 0.04 0.07 0.10 0.12 0.13 0.14 0.15 0.17 0.16 0.16 0.17 0.18 0.18 0.18 0.18 0.18 0.17 0.16 0.12 0.09 0.08 0.08 0.07 0.07 0.06 0.05 0.05 0.04 0.02 0.02 0.01 0.00 0.00 0.00 0.00 0.00 0.07 0.14 0.23 0.31 0.42 0.53 0.57 0.62 0.58 0.54 0.52 0.49 0.67 0.84 1.06 1.29 1.38 1.47 1.57 1.67 1.65 1.64 1.80 1.96 2.42 2.87 2.87 2.88 2.85 2.82 2.83 2.83 2.94 3.05 3.06 3.07 3.32 3.58 3.58 3.58 3.30 3.02 2.65 2.28 2.06 1.84 1.17 0.51 0.46 0.41 0.22 0.04 0.04 0.04
0.00 0.00 0.00 0.00 0.00 0.17 0.35 0.42 0.50 0.60 0.70 0.72 0.75 0.75 0.75 0.75 0.75 1.43 2.10 2.19 2.28 2.50 2.72 2.96 3.21 3.12 3.04 2.93 2.82 2.58 2.34 2.06 1.79 1.68 1.57 1.54 1.50 1.34 1.19 1.12 1.06 0.98 0.89 0.80 0.71 0.53 0.35 0.29 0.24 0.21 0.18 0.11 0.04 0.02 0.00 0.00 0.00 0.00 0.00 0.00 0.00 0.00 0.00 0.00 0.00 0.00 0.00 0.00 0.00 0.01 0.02 0.06 0.09 0.12 0.14 0.15 0.16 0.14 0.12 0.10 0.07 0.06 0.05 0.05 0.04 0.06 0.07 0.07 0.06 0.05 0.04 0.04 0.03 0.04 0.04 0.04 0.05 0.04 0.03 0.02 0.01 0.01 0.00 0.00 0.00 0.00 0.00 0.03 0.05 0.14 0.22 0.32 0.42 0.48 0.55 0.53 0.51 0.52 0.52 0.70 0.87 1.07 1.28 1.35 1.42 1.50 1.57 1.56 1.55 1.70 1.85 2.31 2.78 2.79 2.79 2.78 2.77 2.74 2.70 2.86 3.03 2.99 2.95 3.66 4.36 4.37 4.37 3.93 3.49 2.86 2.22 2.12 2.02 1.15 0.27 0.15 0.03 0.03 0.02 0.02 0.02
0.00 0.00 0.00 0.00 0.00 0.15 0.30 0.38 0.45 0.57 0.70 0.74 0.77 0.79 0.80 0.81 0.82 1.44 2.05 2.16 2.26 2.48 2.69 2.94 3.18 3.10 3.02 2.93 2.84 2.59 2.33 2.06 1.79 1.71 1.64 1.56 1.49 1.33 1.17 1.13 1.09 1.00 0.91 0.81 0.71 0.57 0.42 0.35 0.29 0.25 0.21 0.13 0.04 0.02 0.00 0.00 0.00 0.00 0.00 0.00 0.00 0.00 0.00 0.00 0.00 0.00 0.00 0.00 0.00 0.01 0.02 0.06 0.09 0.12 0.14 0.15 0.17 0.15 0.14 0.12 0.10 0.09 0.08 0.07 0.06 0.06 0.06 0.05 0.05 0.04 0.03 0.03 0.04 0.04 0.04 0.04 0.04 0.03 0.02 0.01 0.01 0.00 0.00 0.00 0.00 0.00 0.00 0.01 0.03 0.07 0.11 0.20 0.29 0.36 0.44 0.45 0.45 0.48 0.51 0.59 0.67 0.89 1.11 1.20 1.28 1.35 1.43 1.36 1.30 1.47 1.65 2.04 2.44 2.54 2.63 2.69 2.74 2.76 2.77 3.00 3.23 3.23 3.23 3.95 4.67 4.66 4.66 4.12 3.58 3.01 2.45 2.24 2.04 1.19 0.35 0.18 0.02 0.02 0.01 0.01 0.01
0.00 0.00 0.00 0.00 0.00 0.12 0.25 0.33 0.40 0.55 0.70 0.75 0.80 0.83 0.85 0.88 0.90 1.45 2.01 2.13 2.25 2.46 2.67 2.91 3.14 3.08 3.01 2.93 2.86 2.59 2.33 2.06 1.79 1.75 1.70 1.59 1.48 1.31 1.15 1.13 1.11 1.02 0.93 0.82 0.72 0.61 0.50 0.42 0.33 0.29 0.25 0.15 0.05 0.03 0.00 0.00 0.00 0.00 0.00 0.00 0.00 0.00 0.00 0.00 0.00 0.00 0.00 0.00 0.00 0.01 0.02 0.06 0.09 0.12 0.14 0.16 0.17 0.16 0.15 0.14 0.13 0.11 0.10 0.09 0.07 0.06 0.04 0.04 0.04 0.03 0.02 0.03 0.04 0.04 0.03 0.03 0.03 0.02 0.01 0.01 0.00 0.00 0.00 0.00 0.00 0.00 0.00 0.00 0.00 0.00 0.00 0.08 0.16 0.24 0.32 0.36 0.40 0.45 0.50 0.48 0.46 0.70 0.95 1.04 1.14 1.21 1.28 1.17 1.05 1.25 1.44 1.77 2.10 2.29 2.47 2.59 2.71 2.78 2.85 3.13 3.42 3.47 3.52 4.25 4.97 4.96 4.94 4.30 3.66 3.17 2.67 2.37 2.06 1.25 0.43 0.22 0.01 0.01 0.00 0.00 0.00
0.00 0.00 0.00 0.00 0.00 0.10 0.20 0.28 0.35 0.50 0.65 0.71 0.78 0.80 0.82 0.85 0.88 1.34 1.81 1.92 2.02 2.33 2.65 2.87 3.09 3.01 2.93 2.91 2.88 2.66 2.44 2.15 1.86 1.78 1.70 1.55 1.41 1.26 1.10 1.08 1.06 0.95 0.85 0.78 0.71 0.63 0.55 0.45 0.34 0.30 0.25 0.16 0.08 0.04 0.00 0.00 0.00 0.00 0.00 0.00 0.00 0.00 0.00 0.00 0.00 0.00 0.00 0.00 0.00 0.01 0.02 0.04 0.07 0.10 0.12 0.14 0.16 0.15 0.14 0.13 0.12 0.11 0.10 0.10 0.09 0.07 0.05 0.05 0.06 0.04 0.04 0.04 0.05 0.04 0.03 0.03 0.03 0.01 0.01 0.00 0.00 0.00 0.00 0.00 0.00 0.00 0.00 0.00 0.00 0.00 0.00 0.05 0.10 0.18 0.26 0.30 0.34 0.43 0.52 0.55 0.58 0.78 0.99 1.09 1.19 1.33 1.47 1.43 1.38 1.52 1.67 2.06 2.45 2.54 2.65 2.71 2.78 2.87 2.96 3.20 3.45 3.46 3.49 4.25 5.01 4.88 4.75 4.25 3.75 3.23 2.71 2.30 1.90 1.19 0.48 0.24 0.01 0.00 0.00 0.00 0.00
0.00 0.00 0.00 0.00 0.00 0.07 0.15 0.22 0.30 0.45 0.60 0.68 0.75 0.77 0.80 0.83 0.85 1.24 1.62 1.71 1.79 2.21 2.62 2.83 3.04 2.95 2.86 2.88 2.90 2.72 2.54 2.24 1.94 1.82 1.70 1.52 1.34 1.20 1.06 1.03 1.00 0.89 0.77 0.74 0.71 0.66 0.60 0.47 0.35 0.30 0.25 0.17 0.10 0.05 0.00 0.00 0.00 0.00 0.00 0.00 0.00 0.00 0.00 0.00 0.00 0.00 0.00 0.00 0.00 0.01 0.01 0.03 0.06 0.08 0.11 0.12 0.14 0.13 0.12 0.12 0.12 0.11 0.11 0.11 0.10 0.08 0.06 0.07 0.07 0.06 0.05 0.06 0.06 0.04 0.02 0.02 0.02 0.01 0.00 0.00 0.00 0.00 0.00 0.00 0.00 0.00 0.00 0.00 0.00 0.00 0.00 0.02 0.04 0.12 0.20 0.24 0.28 0.41 0.54 0.62 0.70 0.86 1.03 1.14 1.24 1.45 1.66 1.69 1.71 1.81 1.90 2.34 2.79 2.80 2.82 2.83 2.85 2.96 3.07 3.27 3.47 3.46 3.45 4.25 5.05 4.80 4.56 4.20 3.83 3.29 2.75 2.24 1.73 1.13 0.53 0.27 0.00 0.00 0.00 0.00 0.00
0.00 0.00 0.00 0.00 0.00 0.06 0.12 0.20 0.28 0.42 0.57 0.65 0.73 0.75 0.78 0.80 0.82 1.16 1.50 1.57 1.65 2.01 2.38 2.62 2.88 2.86 2.85 2.85 2.86 2.72 2.57 2.30 2.04 1.91 1.79 1.60 1.41 1.27 1.13 1.10 1.07 0.98 0.89 0.83 0.78 0.71 0.64 0.53 0.41 0.36 0.30 0.21 0.11 0.06 0.00 0.00 0.00 0.00 0.00 0.00 0.00 0.00 0.00 0.00 0.00 0.00 0.00 0.00 0.00 0.00 0.01 0.02 0.04 0.06 0.08 0.09 0.11 0.10 0.10 0.10 0.10 0.10 0.10 0.09 0.09 0.07 0.05 0.06 0.07 0.06 0.05 0.04 0.04 0.03 0.01 0.01 0.01 0.01 0.00 0.00 0.00 0.00 0.00 0.00 0.00 0.00 0.00 0.00 0.00 0.00 0.00 0.01 0.02 0.08 0.14 0.16 0.18 0.30 0.43 0.55 0.67 0.86 1.04 1.15 1.25 1.44 1.64 1.69 1.74 1.91 2.07 2.45 2.82 2.89 2.96 3.08 3.21 3.39 3.58 3.63 3.67 3.75 3.81 4.09 4.36 4.17 3.99 3.52 3.04 2.57 2.10 1.62 1.14 0.79 0.45 0.23 0.00 0.00 0.00 0.00 0.00
0.00 0.00 0.00 0.00 0.00 0.05 0.10 0.17 0.25 0.40 0.55 0.62 0.70 0.72 0.75 0.77 0.80 1.08 1.37 1.44 1.51 1.82 2.13 2.42 2.71 2.77 2.83 2.83 2.83 2.71 2.60 2.37 2.13 2.00 1.88 1.67 1.47 1.33 1.20 1.17 1.14 1.07 1.00 0.93 0.86 0.77 0.67 0.57 0.48 0.42 0.36 0.24 0.12 0.06 0.00 0.00 0.00 0.00 0.00 0.00 0.00 0.00 0.00 0.00 0.00 0.00 0.00 0.00 0.00 0.00 0.00 0.01 0.01 0.03 0.05 0.06 0.07 0.08 0.08 0.08 0.09 0.09 0.08 0.08 0.08 0.06 0.04 0.05 0.06 0.05 0.04 0.04 0.03 0.01 0.00 0.00 0.00 0.00 0.00 0.00 0.00 0.00 0.00 0.00 0.00 0.00 0.00 0.00 0.00 0.00 0.00 0.00 0.00 0.04 0.08 0.08 0.08 0.20 0.31 0.48 0.65 0.85 1.06 1.16 1.25 1.44 1.62 1.69 1.77 2.00 2.24 2.55 2.86 2.98 3.10 3.33 3.56 3.83 4.09 3.98 3.88 4.03 4.18 3.92 3.67 3.54 3.42 2.84 2.26 1.85 1.45 1.00 0.55 0.46 0.37 0.18 0.00 0.00 0.00 0.00 0.00
0.00 0.00 0.00 0.00 0.00 0.04 0.07 0.15 0.22 0.38 0.53 0.60 0.67 0.70 0.73 0.75 0.78 1.03 1.29 1.36 1.44 1.76 2.08 2.34 2.59 2.71 2.82 2.78 2.75 2.65 2.55 2.30 2.04 1.94 1.82 1.61 1.40 1.32 1.23 1.21 1.17 1.13 1.08 1.02 0.96 0.86 0.78 0.67 0.57 0.50 0.43 0.29 0.15 0.08 0.01 0.00 0.00 0.00 0.00 0.00 0.00 0.00 0.00 0.00 0.00 0.00 0.00 0.00 0.00 0.00 0.00 0.00 0.01 0.02 0.04 0.04 0.04 0.05 0.05 0.05 0.05 0.05 0.06 0.06 0.07 0.05 0.04 0.05 0.05 0.05 0.04 0.03 0.03 0.01 0.00 0.00 0.00 0.00 0.00 0.00 0.00 0.00 0.00 0.00 0.00 0.00 0.00 0.00 0.00 0.00 0.00 0.00 0.00 0.02 0.04 0.04 0.04 0.17 0.30 0.48 0.67 0.87 1.07 1.17 1.27 1.47 1.68 1.79 1.92 2.22 2.52 2.72 2.93 3.10 3.28 3.42 3.57 3.77 3.97 3.91 3.85 4.07 4.29 4.15 4.01 3.76 3.50 2.87 2.23 1.80 1.38 0.94 0.52 0.43 0.35 0.17 0.00 0.00 0.00 0.00 0.00
0.00 0.00 0.00 0.00 0.00 0.03 0.05 0.12 0.20 0.35 0.50 0.57 0.65 0.68 0.70 0.72 0.75 0.98 1.22 1.29 1.36 1.70 2.04 2.25 2.47 2.64 2.81 2.74 2.66 2.58 2.50 2.23 1.96 1.86 1.77 1.55 1.33 1.30 1.27 1.24 1.21 1.19 1.17 1.11 1.05 0.97 0.88 0.77 0.66 0.58 0.50 0.34 0.19 0.10 0.01 0.01 0.00 0.00 0.00 0.00 0.00 0.00 0.00 0.00 0.00 0.00 0.00 0.00 0.00 0.00 0.00 0.00 0.00 0.01 0.02 0.02 0.02 0.02 0.02 0.02 0.02 0.03 0.03 0.04 0.05 0.05 0.04 0.04 0.05 0.04 0.03 0.03 0.02 0.01 0.00 0.00 0.00 0.00 0.00 0.00 0.00 0.00 0.00 0.00 0.00 0.00 0.00 0.00 0.00 0.00 0.00 0.00 0.00 0.00 0.00 0.00 0.00 0.14 0.29 0.48 0.68 0.88 1.08 1.18 1.28 1.50 1.73 1.90 2.06 2.43 2.80 2.90 2.99 3.22 3.45 3.52 3.58 3.71 3.85 3.83 3.82 4.10 4.39 4.38 4.36 3.98 3.59 2.89 2.20 1.75 1.30 0.89 0.48 0.40 0.32 0.16 0.00 0.00 0.00 0.00 0.00
0.00 0.00 0.00 0.00 0.00 0.01 0.03 0.09 0.15 0.30 0.45 0.52 0.60 0.62 0.65 0.67 0.70 0.88 1.06 1.10 1.15 1.43 1.71 1.95 2.19 2.38 2.56 2.50 2.44 2.42 2.41 2.21 2.02 1.95 1.89 1.62 1.35 1.35 1.34 1.34 1.33 1.31 1.29 1.23 1.18 1.08 0.98 0.88 0.78 0.70 0.61 0.41 0.21 0.11 0.01 0.01 0.00 0.00 0.00 0.00 0.00 0.00 0.00 0.00 0.00 0.00 0.00 0.00 0.00 0.00 0.00 0.00 0.00 0.01 0.01 0.01 0.01 0.01 0.01 0.01 0.01 0.01 0.01 0.02 0.03 0.02 0.02 0.02 0.03 0.02 0.01 0.01 0.01 0.01 0.00 0.00 0.00 0.00 0.00 0.00 0.00 0.00 0.00 0.00 0.00 0.00 0.00 0.00 0.00 0.00 0.00 0.00 0.00 0.00 0.00 0.00 0.00 0.14 0.27 0.49 0.72 0.94 1.17 1.31 1.46 1.63 1.80 1.88 1.97 2.20 2.42 2.55 2.68 2.90 3.11 3.29 3.46 3.62 3.78 3.78 3.79 4.08 4.37 4.35 4.33 3.83 3.33 2.56 1.81 1.31 0.82 0.58 0.34 0.27 0.20 0.10 0.00 0.00 0.00 0.00 0.00
0.00 0.00 0.00 0.00 0.00 0.00 0.00 0.05 0.10 0.25 0.40 0.48 0.55 0.57 0.60 0.62 0.65 0.78 0.90 0.92 0.93 1.16 1.38 1.65 1.91 2.11 2.32 2.27 2.22 2.27 2.31 2.19 2.07 2.04 2.00 1.69 1.38 1.40 1.42 1.44 1.46 1.44 1.42 1.36 1.30 1.19 1.07 0.98 0.90 0.81 0.73 0.48 0.23 0.12 0.02 0.01 0.00 0.00 0.00 0.00 0.00 0.00 0.00 0.00 0.00 0.00 0.00 0.00 0.00 0.00 0.00 0.00 0.00 0.00 0.00 0.00 0.00 0.00 0.00 0.00 0.00 0.00 0.00 0.00 0.00 0.00 0.00 0.00 0.00 0.00 0.00 0.00 0.00 0.00 0.00 0.00 0.00 0.00 0.00 0.00 0.00 0.00 0.00 0.00 0.00 0.00 0.00 0.00 0.00 0.00 0.00 0.00 0.00 0.00 0.00 0.00 0.00 0.12 0.25 0.50 0.75 1.00 1.25 1.44 1.64 1.75 1.86 1.87 1.88 1.96 2.05 2.21 2.37 2.58 2.78 3.05 3.33 3.51 3.70 3.73 3.76 4.05 4.35 4.33 4.31 3.69 3.06 2.23 1.41 0.87 0.33 0.27 0.20 0.14 0.08 0.04 0.00 0.00 0.00 0.00 0.00
0.00 0.00 0.00 0.00 0.00 0.00 0.00 0.04 0.07 0.21 0.35 0.42 0.50 0.52 0.55 0.57 0.60 0.68 0.75 0.76 0.77 0.99 1.22 1.44 1.65 1.86 2.08 2.06 2.05 2.20 2.34 2.25 2.15 2.06 1.98 1.67 1.37 1.38 1.39 1.41 1.42 1.38 1.34 1.30 1.26 1.15 1.04 0.98 0.93 0.83 0.74 0.49 0.23 0.13 0.03 0.01 0.00 0.00 0.00 0.00 0.00 0.00 0.00 0.00 0.00 0.00 0.00 0.00 0.00 0.00 0.00 0.00 0.00 0.00 0.00 0.00 0.00 0.00 0.00 0.00 0.00 0.00 0.00 0.00 0.00 0.00 0.00 0.00 0.00 0.00 0.00 0.00 0.00 0.00 0.00 0.00 0.00 0.00 0.00 0.00 0.00 0.00 0.00 0.00 0.00 0.00 0.00 0.00 0.00 0.00 0.00 0.00 0.00 0.00 0.00 0.00 0.00 0.12 0.25 0.50 0.75 1.00 1.25 1.45 1.65 1.83 2.00 1.98 1.95 2.07 2.19 2.24 2.29 2.44 2.58 2.87 3.15 3.31 3.48 3.53 3.58 3.84 4.10 4.12 4.12 3.52 2.92 2.14 1.35 0.80 0.25 0.20 0.14 0.09 0.04 0.02 0.00 0.00 0.00 0.00 0.00
0.00 0.00 0.00 0.00 0.00 0.00 0.00 0.03 0.05 0.17 0.30 0.38 0.45 0.47 0.50 0.53 0.55 0.57 0.60 0.60 0.60 0.83 1.06 1.23 1.40 1.61 1.83 1.85 1.88 2.12 2.37 2.30 2.23 2.09 1.95 1.66 1.36 1.36 1.36 1.37 1.38 1.32 1.27 1.25 1.22 1.11 1.01 0.98 0.95 0.85 0.76 0.49 0.23 0.13 0.03 0.01 0.00 0.00 0.00 0.00 0.00 0.00 0.00 0.00 0.00 0.00 0.00 0.00 0.00 0.00 0.00 0.00 0.00 0.00 0.00 0.00 0.00 0.00 0.00 0.00 0.00 0.00 0.00 0.00 0.00 0.00 0.00 0.00 0.00 0.00 0.00 0.00 0.00 0.00 0.00 0.00 0.00 0.00 0.00 0.00 0.00 0.00 0.00 0.00 0.00 0.00 0.00 0.00 0.00 0.00 0.00 0.00 0.00 0.00 0.00 0.00 0.00 0.12 0.25 0.50 0.75 1.00 1.25 1.46 1.66 1.90 2.14 2.08 2.03 2.18 2.33 2.27 2.20 2.29 2.39 2.67 2.96 3.11 3.26 3.33 3.40 3.63 3.86 3.90 3.94 3.37 2.79 2.04 1.29 0.73 0.17 0.12 0.08 0.04 0.00 0.00 0.00 0.00 0.00 0.00 0.00
0.00 0.00 0.00 0.00 0.00 0.00 0.00 0.01 0.03 0.11 0.20 0.26 0.33 0.35 0.38 0.40 0.43 0.45 0.47 0.47 0.47 0.66 0.85 1.05 1.26 1.41 1.56 1.67 1.78 2.04 2.30 2.27 2.24 2.16 2.08 1.76 1.45 1.43 1.42 1.41 1.40 1.32 1.24 1.17 1.10 1.02 0.95 0.92 0.89 0.81 0.73 0.49 0.25 0.14 0.03 0.01 0.00 0.00 0.00 0.00 0.00 0.00 0.00 0.00 0.00 0.00 0.00 0.00 0.00 0.00 0.00 0.00 0.00 0.00 0.00 0.00 0.00 0.00 0.00 0.00 0.00 0.00 0.00 0.00 0.00 0.00 0.00 0.00 0.00 0.00 0.00 0.00 0.00 0.00 0.00 0.00 0.00 0.00 0.00 0.00 0.00 0.00 0.00 0.00 0.00 0.00 0.00 0.00 0.00 0.00 0.00 0.00 0.00 0.01 0.03 0.04 0.05 0.20 0.35 0.55 0.75 1.00 1.25 1.45 1.65 1.91 2.17 2.07 1.97 2.10 2.24 2.15 2.06 2.15 2.25 2.49 2.73 2.91 3.08 3.10 3.12 3.35 3.59 3.65 3.72 3.30 2.89 2.13 1.37 0.80 0.23 0.15 0.06 0.03 0.00 0.00 0.00 0.00 0.00 0.00 0.00
0.00 0.00 0.00 0.00 0.00 0.00 0.00 0.00 0.00 0.05 0.10 0.15 0.20 0.23 0.25 0.28 0.30 0.32 0.35 0.35 0.35 0.49 0.64 0.88 1.11 1.20 1.28 1.48 1.69 1.96 2.23 2.24 2.25 2.23 2.20 1.87 1.54 1.50 1.47 1.44 1.42 1.32 1.22 1.10 0.98 0.94 0.89 0.86 0.84 0.77 0.70 0.48 0.27 0.15 0.03 0.01 -0.00 0.00 0.00 0.00 0.00 0.00 0.00 0.00 0.00 0.00 0.00 0.00 0.00 0.00 0.00 0.00 0.00 0.00 0.00 0.00 0.00 0.00 0.00 0.00 0.00 0.00 0.00 0.00 0.00 0.00 0.00 0.00 0.00 0.00 0.00 0.00 0.00 0.00 0.00 0.00 0.00 0.00 0.00 0.00 0.00 0.00 0.00 0.00 0.00 0.00 0.00 0.00 0.00 0.00 0.00 0.00 0.00 0.03 0.05 0.08 0.10 0.28 0.45 0.60 0.75 1.00 1.25 1.45 1.65 1.93 2.20 2.06 1.91 2.02 2.14 2.02 1.91 2.00 2.10 2.30 2.51 2.70 2.89 2.87 2.84 3.08 3.32 3.41 3.49 3.24 2.99 2.22 1.45 0.88 0.30 0.17 0.04 0.02 0.00 0.00 0.00 0.00 0.00 0.00 0.00
0.00 0.00 0.00 0.00 0.00 0.00 0.00 0.00 0.00 0.03 0.05 0.09 0.12 0.14 0.15 0.16 0.18 0.19 0.20 0.20 0.20 0.33 0.47 0.68 0.89 1.04 1.19 1.35 1.53 1.78 2.04 2.08 2.13 2.21 2.29 1.96 1.64 1.57 1.50 1.45 1.40 1.28 1.16 1.05 0.95 0.90 0.84 0.82 0.79 0.74 0.68 0.47 0.26 0.15 0.05 0.03 0.00 0.00 0.00 0.00 0.00 0.00 0.00 0.00 0.00 0.00 0.00 0.00 0.00 0.00 0.00 0.00 0.00 0.00 0.01 0.01 0.01 0.00 0.00 0.00 0.00 0.01 0.01 0.01 0.01 0.01 0.01 0.00 0.00 0.00 0.00 0.00 0.00 0.00 0.00 0.00 0.00 0.00 0.00 0.00 0.00 0.00 0.01 0.01 0.02 0.01 0.01 0.01 0.01 0.01 0.01 0.01 0.00 0.04 0.08 0.10 0.12 0.29 0.45 0.57 0.70 0.94 1.18 1.35 1.53 1.80 2.08 1.97 1.86 2.09 2.33 2.19 2.05 2.06 2.07 2.27 2.48 2.60 2.73 2.64 2.54 2.80 3.05 3.18 3.31 3.09 2.87 2.16 1.44 0.88 0.32 0.17 0.02 0.01 0.00 0.00 0.00 0.00 0.00 0.00 0.00
0.00 0.00 0.00 0.00 0.00 0.00 0.00 0.00 0.00 0.00 0.00 0.03 0.05 0.05 0.05 0.05 0.05 0.05 0.05 0.05 0.05 0.17 0.29 0.48 0.67 0.88 1.09 1.23 1.36 1.60 1.84 1.93 2.02 2.20 2.37 2.06 1.74 1.64 1.53 1.46 1.39 1.24 1.09 1.01 0.92 0.85 0.79 0.77 0.75 0.71 0.66 0.45 0.24 0.16 0.07 0.04 0.00 0.00 0.00 0.00 0.00 0.00 0.00 0.00 0.00 0.00 0.00 0.00 0.00 0.00 0.00 0.00 0.00 0.01 0.01 0.01 0.01 0.01 0.00 0.00 0.00 0.01 0.02 0.03 0.03 0.02 0.01 0.01 0.00 0.00 0.00 0.00 0.00 0.00 0.00 0.00 0.00 0.00 0.00 0.00 0.00 0.01 0.01 0.03 0.04 0.03 0.02 0.02 0.01 0.02 0.03 0.01 0.00 0.05 0.10 0.12 0.15 0.30 0.45 0.55 0.65 0.88 1.10 1.26 1.42 1.69 1.95 1.88 1.81 2.16 2.51 2.35 2.19 2.12 2.04 2.25 2.45 2.51 2.57 2.41 2.24 2.52 2.79 2.96 3.12 2.93 2.74 2.09 1.44 0.89 0.33 0.17 0.01 0.01 0.00 0.00 0.00 0.00 0.00 0.00 0.00
0.00 0.00 0.00 0.00 0.00 0.00 0.00 0.00 0.00 0.00 0.00 0.01 0.03 0.03 0.03 0.03 0.03 0.03 0.03 0.03 0.03 0.10 0.18 0.37 0.56 0.77 0.99 1.14 1.29 1.53 1.78 1.89 2.01 2.16 2.31 2.04 1.77 1.70 1.64 1.56 1.48 1.31 1.14 1.01 0.89 0.85 0.81 0.78 0.75 0.70 0.64 0.43 0.23 0.15 0.07 0.03 0.00 0.00 0.00 0.00 0.00 0.00 0.00 0.01 0.01 0.04 0.06 0.05 0.05 0.05 0.05 0.03 0.00 0.01 0.01 0.02 0.02 0.02 0.02 0.02 0.02 0.02 0.02 0.03 0.04 0.03 0.02 0.01 0.01 0.01 0.01 0.01 0.01 0.01 0.01 0.01 0.01 0.02 0.02 0.01 0.01 0.01 0.03 0.03 0.04 0.04 0.03 0.02 0.01 0.02 0.02 0.03 0.03 0.09 0.15 0.17 0.18 0.31 0.43 0.53 0.63 0.81 0.99 1.14 1.28 1.53 1.78 1.73 1.69 2.07 2.46 2.31 2.17 2.13 2.08 2.26 2.43 2.46 2.50 2.36 2.23 2.52 2.81 2.83 2.85 2.62 2.40 1.85 1.30 0.82 0.34 0.18 0.01 0.01 0.00 0.00 0.00 0.00 0.00 0.00 0.00
0.00 0.00 0.00 0.00 0.00 0.00 0.00 0.00 0.00 0.00 0.00 0.00 0.00 0.00 0.00 0.00 0.00 0.00 0.00 0.00 0.00 0.04 0.08 0.26 0.44 0.67 0.89 1.05 1.22 1.46 1.71 1.85 2.00 2.12 2.24 2.02 1.80 1.77 1.74 1.66 1.57 1.38 1.18 1.01 0.85 0.84 0.83 0.79 0.75 0.69 0.62 0.42 0.22 0.14 0.06 0.03 -0.00 0.00 0.00 0.00 0.00 0.00 0.00 0.01 0.03 0.07 0.11 0.11 0.10 0.10 0.10 0.05 0.00 0.01 0.02 0.03 0.03 0.04 0.04 0.04 0.04 0.02 0.01 0.03 0.04 0.04 0.03 0.02 0.01 0.01 0.01 0.01 0.01 0.01 0.01 0.02 0.03 0.04 0.04 0.02 0.01 0.03 0.04 0.04 0.04 0.04 0.04 0.03 0.02 0.02 0.01 0.03 0.06 0.13 0.20 0.21 0.22 0.32 0.42 0.52 0.61 0.74 0.87 1.01 1.15 1.39 1.62 1.59 1.56 1.99 2.41 2.28 2.15 2.14 2.13 2.27 2.41 2.42 2.43 2.32 2.21 2.52 2.84 2.71 2.57 2.31 2.06 1.61 1.16 0.75 0.34 0.18 0.02 0.01 0.00 0.00 0.00 0.00 0.00 0.00 0.00
0.00 0.00 0.00 0.00 0.00 0.00 0.00 0.00 0.00 0.00 0.00 0.00 0.00 0.00 0.00 0.00 0.00 0.00 0.00 0.00 0.00 0.02 0.04 0.22 0.41 0.61 0.81 0.98 1.15 1.37 1.60 1.73 1.87 1.97 2.06 1.94 1.81 1.79 1.75 1.69 1.63 1.41 1.19 1.03 0.87 0.86 0.85 0.81 0.76 0.71 0.66 0.44 0.21 0.15 0.08 0.04 0.00 0.00 0.00 0.00 0.00 0.00 0.00 0.04 0.07 0.12 0.18 0.17 0.16 0.13 0.10 0.05 0.01 0.01 0.02 0.03 0.03 0.09 0.15 0.12 0.10 0.09 0.08 0.07 0.05 0.04 0.04 0.04 0.04 0.03 0.03 0.01 0.01 0.02 0.04 0.04 0.04 0.04 0.04 0.03 0.02 0.02 0.02 0.02 0.02 0.02 0.02 0.01 0.01 0.03 0.06 0.12 0.18 0.26 0.33 0.34 0.34 0.43 0.53 0.59 0.65 0.73 0.81 0.99 1.16 1.39 1.62 1.60 1.59 2.02 2.44 2.34 2.23 2.17 2.11 2.27 2.42 2.47 2.52 2.40 2.28 2.54 2.81 2.66 2.51 2.29 2.08 1.58 1.08 0.73 0.38 0.20 0.02 0.01 0.00 0.00 0.00 0.00 0.00 0.00 0.00
0.00 0.00 0.00 0.00 0.00 0.00 0.00 0.00 0.00 0.00 0.00 0.00 0.00 0.00 0.00 0.00 0.00 0.00 0.00 0.00 0.00 0.00 0.00 0.18 0.37 0.55 0.73 0.91 1.08 1.28 1.48 1.61 1.74 1.81 1.89 1.86 1.83 1.80 1.77 1.73 1.69 1.44 1.19 1.04 0.89 0.89 0.88 0.82 0.77 0.74 0.70 0.45 0.21 0.15 0.10 0.05 0.00 0.00 0.00 0.00 0.00 0.00 0.00 0.06 0.11 0.18 0.25 0.23 0.22 0.16 0.10 0.06 0.01 0.01 0.02 0.03 0.03 0.15 0.26 0.21 0.16 0.16 0.16 0.11 0.06 0.05 0.04 0.05 0.06 0.05 0.04 0.02 0.00 0.04 0.07 0.07 0.06 0.04 0.03 0.03 0.03 0.02 0.01 0.01 0.01 0.01 0.00 0.00 0.00 0.05 0.10 0.21 0.31 0.38 0.45 0.46 0.47 0.55 0.63 0.66 0.69 0.72 0.76 0.96 1.17 1.39 1.61 1.62 1.63 2.05 2.47 2.40 2.32 2.21 2.09 2.26 2.43 2.52 2.60 2.48 2.35 2.56 2.78 2.62 2.45 2.28 2.10 1.55 1.00 0.71 0.41 0.21 0.02 0.01 0.00 0.00 0.00 0.00 0.00 0.00 0.00
0.00 0.00 0.00 0.00 0.00 0.00 0.00 0.00 0.00 0.00 0.00 0.00 0.00 0.00 0.00 0.00 0.00 0.00 0.00 0.00 0.00 0.00 0.00 0.18 0.36 0.50 0.65 0.86 1.08 1.20 1.31 1.54 1.77 1.86 1.96 1.92 1.88 1.86 1.84 1.81 1.78 1.55 1.32 1.18 1.02 0.99 0.95 0.90 0.84 0.75 0.66 0.46 0.24 0.16 0.08 0.04 0.00 0.00 0.00 0.00 0.00 0.00 0.00 0.07 0.15 0.22 0.29 0.29 0.28 0.21 0.14 0.08 0.01 0.03 0.05 0.06 0.07 0.18 0.29 0.26 0.23 0.22 0.21 0.13 0.05 0.05 0.04 0.04 0.04 0.04 0.04 0.02 0.01 0.03 0.06 0.05 0.05 0.04 0.03 0.02 0.01 0.01 0.01 0.01 0.01 0.01 0.01 0.01 0.01 0.10 0.18 0.28 0.38 0.44 0.52 0.53 0.54 0.60 0.67 0.67 0.67 0.73 0.79 0.97 1.15 1.37 1.59 1.64 1.69 2.07 2.45 2.38 2.32 2.18 2.04 2.16 2.27 2.44 2.61 2.52 2.44 2.58 2.73 2.46 2.19 2.01 1.83 1.40 0.97 0.67 0.39 0.20 0.02 0.01 0.00 0.00 0.00 0.00 0.00 0.00 0.00
0.00 0.00 0.00 0.00 0.00 0.00 0.00 0.00 0.00 0.00 0.00 0.00 0.00 0.00 0.00 0.00 0.00 0.00 0.00 0.00 0.00 0.00 0.00 0.17 0.34 0.45 0.56 0.82 1.08 1.11 1.14 1.48 1.81 1.92 2.02 1.97 1.92 1.92 1.91 1.89 1.86 1.66 1.46 1.31 1.16 1.09 1.02 0.97 0.91 0.77 0.63 0.46 0.28 0.17 0.06 0.03 0.00 0.00 0.00 0.00 0.00 0.00 0.00 0.10 0.19 0.26 0.33 0.34 0.34 0.26 0.18 0.10 0.02 0.05 0.08 0.10 0.12 0.22 0.31 0.31 0.31 0.28 0.25 0.15 0.05 0.05 0.04 0.04 0.03 0.04 0.04 0.02 0.01 0.03 0.04 0.04 0.04 0.03 0.02 0.01 0.00 0.00 0.00 0.00 0.00 0.01 0.03 0.02 0.01 0.14 0.27 0.35 0.44 0.51 0.58 0.59 0.61 0.66 0.71 0.68 0.65 0.73 0.82 0.98 1.14 1.35 1.57 1.67 1.76 2.09 2.42 2.37 2.32 2.16 2.00 2.05 2.11 2.37 2.62 2.57 2.52 2.60 2.68 2.30 1.92 1.74 1.56 1.25 0.93 0.65 0.36 0.19 0.02 0.01 0.00 0.00 0.00 0.00 0.00 0.00 0.00
0.00 0.00 0.00 0.00 0.00 0.00 0.00 0.00 0.00 0.00 0.00 0.00 0.00 0.00 0.00 0.00 0.00 0.00 0.00 0.00 0.00 0.00 0.00 0.17 0.34 0.50 0.65 0.89 1.14 1.20 1.26 1.64 2.02 2.06 2.09 2.00 1.90 1.88 1.85 1.80 1.75 1.67 1.58 1.47 1.35 1.21 1.07 0.95 0.83 0.69 0.55 0.39 0.23 0.15 0.07 0.04 0.00 0.00 0.00 0.00 0.00 0.00 0.00 0.11 0.21 0.27 0.32 0.34 0.37 0.30 0.22 0.17 0.13 0.15 0.18 0.20 0.22 0.29 0.35 0.35 0.34 0.30 0.27 0.18 0.09 0.07 0.06 0.04 0.02 0.02 0.02 0.01 0.01 0.03 0.04 0.04 0.03 0.02 0.02 0.03 0.04 0.02 0.00 0.00 0.00 0.01 0.01 0.01 0.01 0.14 0.27 0.39 0.51 0.58 0.65 0.68 0.72 0.75 0.78 0.79 0.81 0.85 0.89 1.02 1.15 1.29 1.43 1.55 1.67 1.90 2.13 2.13 2.12 1.94 1.77 1.90 2.03 2.36 2.69 2.61 2.52 2.59 2.66 2.19 1.73 1.54 1.35 1.09 0.83 0.58 0.32 0.17 0.02 0.01 0.00 0.00 0.00 0.00 0.00 0.00 0.00
